ply
format ascii 1.0
element vertex 1187
property float x
property float y
property float z
property uchar red
property uchar green
property uchar blue
end_header
-6.312031 -11.060458 61.142868 139 54 61
-6.309752 -10.924707 61.120785 142 58 65
-6.307877 -10.789745 61.102627 141 59 63
-6.306455 -10.655625 61.088852 138 57 60
-6.305530 -10.522394 61.079887 138 58 60
-6.305138 -10.390081 61.076092 138 58 60
-6.305314 -10.258708 61.077797 137 56 59
-6.306083 -10.128281 61.085251 134 53 57
-6.307467 -9.998794 61.098648 132 51 57
-6.309475 -9.870229 61.118107 131 53 59
-6.312116 -9.742554 61.143684 133 56 63
-6.315384 -9.615726 61.175350 138 63 71
-6.319272 -9.489690 61.213005 146 73 84
-6.323761 -9.364383 61.256489 158 90 102
-6.328825 -9.239729 61.305550 176 112 125
-6.334436 -9.115648 61.359894 187 128 143
-6.340553 -8.992052 61.419147 172 120 135
-6.347135 -8.868850 61.482906 138 91 107
-6.354134 -8.745947 61.550705 113 71 88
-6.361499 -8.623248 61.622047 112 72 91
-6.369176 -8.500658 61.696411 134 95 116
-6.377110 -8.378085 61.773270 178 143 163
-6.385248 -8.255444 61.852093 223 198 212
-6.393532 -8.132649 61.932343 236 218 229
-6.401912 -8.009628 62.013515 201 177 192
-6.410335 -7.886310 62.095108 139 104 125
-6.418755 -7.762637 62.176666 104 68 88
-6.427125 -7.638554 62.257755 118 85 102
-6.435405 -7.514014 62.337955 147 116 130
-6.443555 -7.388980 62.416901 168 140 151
-6.451539 -7.263419 62.494236 196 175 182
-6.459322 -7.137302 62.569630 234 224 227
-6.466874 -7.010611 62.642788 251 249 250
-6.474167 -6.883327 62.713428 246 243 244
-6.481174 -6.755442 62.781303 238 231 232
-6.487874 -6.626950 62.846203 237 225 227
-6.494247 -6.497852 62.907940 228 210 215
-6.500282 -6.368155 62.966396 197 174 181
-6.505969 -6.237874 63.021488 163 137 147
-6.511308 -6.107028 63.073200 144 115 128
-6.516303 -5.975644 63.121590 143 115 128
-6.520967 -5.843756 63.166775 163 136 148
-6.525322 -5.711401 63.208958 174 150 160
-6.529395 -5.578623 63.248402 184 164 172
-6.533218 -5.445467 63.285442 218 204 211
-6.536833 -5.311984 63.320461 246 236 244
-6.540283 -5.178217 63.353878 248 239 248
-6.543613 -5.044215 63.386139 243 235 244
-6.546869 -4.910017 63.417671 245 238 246
-6.550096 -4.775662 63.448929 244 238 244
-6.553333 -4.641181 63.480293 233 223 231
-6.556619 -4.506597 63.512119 213 192 203
-6.559981 -4.371927 63.544685 181 149 162
-6.563441 -4.237180 63.578201 160 122 136
-6.567010 -4.102357 63.612782 157 119 132
-6.570693 -3.967453 63.648457 172 135 149
-6.574483 -3.832457 63.685162 212 186 196
-6.578364 -3.697355 63.722759 244 233 237
-6.582313 -3.562127 63.761009 242 233 238
-6.586299 -3.426754 63.799625 212 186 199
-6.590286 -3.291214 63.838242 169 129 148
-6.594233 -3.155489 63.876469 159 115 137
-6.598093 -3.019559 63.913860 191 153 175
-6.601821 -2.883411 63.949978 219 187 209
-6.605372 -2.747033 63.984375 198 170 193
-6.608703 -2.610420 64.016640 154 129 152
-6.611773 -2.473570 64.046379 157 136 158
-6.614547 -2.336488 64.073257 208 195 209
-6.616997 -2.199182 64.096985 245 240 245
-6.619102 -2.061666 64.117371 239 232 238
-6.620846 -1.923957 64.134262 198 183 196
-6.622226 -1.786078 64.147636 169 149 165
-6.623246 -1.648051 64.157516 194 177 190
-6.623919 -1.509902 64.164032 235 225 231
-6.624267 -1.371658 64.167412 247 239 243
-6.624321 -1.233345 64.167931 236 218 228
-6.624121 -1.094988 64.165993 199 164 183
-6.623713 -0.956608 64.162048 151 100 125
-6.623151 -0.818227 64.156593 135 74 99
-6.622493 -0.679860 64.150223 154 88 111
-6.621801 -0.541517 64.143524 174 104 123
-6.621144 -0.403205 64.137154 178 105 121
-6.620587 -0.264925 64.131760 178 103 116
-6.620199 -0.126671 64.127998 177 100 112
-6.620045 0.011567 64.126511 168 90 100
-6.620187 0.149806 64.127884 155 76 86
-6.620681 0.288065 64.132675 149 68 80
-6.621579 0.426372 64.141373 152 70 83
-6.622921 0.564753 64.154373 158 74 88
-6.624739 0.703241 64.171982 161 76 91
-6.627054 0.841869 64.194405 161 76 90
-6.629876 0.980668 64.221741 158 74 88
-6.633204 1.119670 64.253967 154 70 83
-6.637023 1.258904 64.290970 150 66 78
-6.641311 1.398396 64.332504 146 61 74
-6.646033 1.538169 64.378250 142 57 69
-6.651146 1.678237 64.427780 142 55 66
-6.656601 1.818612 64.480614 144 57 68
-6.662340 1.959298 64.536209 148 59 70
-6.668305 2.100295 64.593987 150 61 71
-6.674434 2.241596 64.653358 152 62 71
-6.680665 2.383190 64.713722 152 63 70
-6.686942 2.525061 64.774521 150 61 68
-6.693207 2.667190 64.835205 144 56 61
-6.699412 2.809555 64.895317 140 52 57
-6.705516 2.952134 64.954437 141 54 58
-6.711482 3.094905 65.012230 142 56 60
-6.717283 3.237846 65.068428 142 57 61
-6.722901 3.380937 65.122849 141 58 62
-6.728323 3.524160 65.175369 138 57 62
-6.733544 3.667500 65.225945 131 52 57
-6.738565 3.810944 65.274582 122 46 50
-6.743391 3.954484 65.321327 117 44 47
-6.748030 4.098113 65.366264 115 44 46
-6.752492 4.241823 65.409485 113 43 46
-6.756787 4.385612 65.451096 112 43 46
-6.760923 4.529473 65.491158 111 42 46
-6.764904 4.673400 65.529724 109 42 45
-6.768731 4.817384 65.566788 108 42 45
-6.772398 4.961410 65.602310 107 41 44
-6.775894 5.105461 65.636177 106 40 42
-6.779202 5.249512 65.668221 104 39 42
-6.782298 5.393532 65.698204 103 38 41
-6.785150 5.537483 65.725838 101 38 41
-6.787723 5.681319 65.750755 99 37 40
-6.789975 5.824987 65.772568 98 37 40
-6.791860 5.968428 65.790833 98 38 40
-6.793331 6.111574 65.805084 98 38 40
-6.794338 6.254354 65.814835 98 38 41
-6.794832 6.396695 65.819626 98 38 41
-6.794765 6.538515 65.818977 98 38 41
-6.794092 6.679737 65.812454 98 38 41
-6.792774 6.820283 65.799690 96 37 40
-6.790777 6.960078 65.780342 95 35 39
-6.788074 7.099051 65.754166 93 34 38
-6.784650 7.237143 65.720985 92 33 37
-6.780495 7.374296 65.680740 91 33 37
-6.775613 7.510470 65.633453 89 34 38
-6.770017 7.645634 65.579239 88 36 38
-6.763731 7.779770 65.518349 88 37 38
-6.756790 7.912877 65.451118 88 37 38
-6.749240 8.044969 65.377983 86 37 37
-6.741134 8.176070 65.299461 84 36 35
-6.732535 8.306225 65.216164 83 35 35
-6.723512 8.435488 65.128761 83 34 34
-6.714137 8.563926 65.037956 85 34 35
-6.704488 8.691616 64.944481 86 35 37
-6.694640 8.818643 64.849083 87 36 38
-6.684667 8.945090 64.752487 87 37 39
-6.674643 9.071052 64.655380 87 38 40
-6.664631 9.196612 64.558403 86 39 40
-6.654692 9.321855 64.462128 85 40 40
-6.644873 9.446855 64.367012 84 41 41
-6.635216 9.571677 64.273468 82 41 41
-6.625750 9.696376 64.181770 80 41 41
-6.616496 9.820994 64.092125 78 40 40
-6.607461 9.945556 64.004608 76 39 39
-6.598644 10.070073 63.919201 74 38 38
-6.590032 10.194539 63.835785 71 36 37
-6.581605 10.318935 63.754154 68 35 35
-6.573333 10.443226 63.674026 67 34 34
-6.565180 10.567362 63.595043 65 33 33
-6.557102 10.691280 63.516796 64 32 33
-6.549054 10.814911 63.438839 63 31 32
-6.540985 10.938170 63.360676 63 31 32
-6.532843 11.060969 63.281807 63 32 33
-6.524574 11.183210 63.201710 64 34 33
-6.516127 11.304797 63.119881 64 35 34
-6.507450 11.425628 63.035831 63 35 34
-6.498497 11.545605 62.949104 61 33 32
-6.489225 11.664635 62.859291 58 32 30
-6.479598 11.782633 62.766037 57 31 30
-6.469586 11.899522 62.669060 56 32 30
-6.459169 12.015237 62.568150 55 32 31
-6.448333 12.129729 62.463184 54 32 32
-6.230541 -13.143647 61.640633 102 35 39
-6.227985 -13.005433 61.615341 106 38 41
-6.225191 -12.866837 61.587704 109 40 44
-6.222178 -12.727910 61.557892 110 42 47
-6.218970 -12.588719 61.526157 109 42 47
-6.215598 -12.449334 61.492790 108 40 45
-6.212094 -12.309834 61.458126 106 38 43
-6.208498 -12.170302 61.422554 107 38 43
-6.204852 -12.030826 61.386478 108 38 44
-6.201199 -11.891493 61.350342 110 38 45
-6.197589 -11.752397 61.314629 113 39 47
-6.194073 -11.613630 61.279839 117 40 49
-6.190702 -11.475284 61.246494 120 40 51
-6.187531 -11.337447 61.215126 124 43 53
-6.184614 -11.200204 61.186256 131 47 58
-6.182002 -11.063633 61.160419 138 54 64
-6.179749 -10.927807 61.138126 143 60 68
-6.177902 -10.792788 61.119854 142 60 66
-6.176507 -10.658627 61.106060 139 57 62
-6.175606 -10.525367 61.097145 137 56 60
-6.175235 -10.393037 61.093468 138 57 60
-6.175423 -10.261653 61.095329 137 56 60
-6.176196 -10.131220 61.102978 136 55 59
-6.177570 -10.001727 61.116573 135 54 59
-6.179558 -9.873157 61.136238 134 56 61
-6.182162 -9.745473 61.162003 135 59 65
-6.185380 -9.618632 61.193840 139 65 73
-6.189201 -9.492579 61.231640 147 76 85
-6.193607 -9.367248 61.275230 162 95 106
-6.198575 -9.242566 61.324375 182 120 133
-6.204072 -9.118452 61.378773 190 135 148
-6.210065 -8.994821 61.438057 169 121 135
-6.216511 -8.871579 61.501827 133 91 106
-6.223364 -8.748636 61.569630 110 73 91
-6.230575 -8.625896 61.640968 111 75 96
-6.238092 -8.503265 61.715340 137 103 125
-6.245862 -8.380654 61.792213 189 162 181
-6.253833 -8.257976 61.871063 234 217 229
-6.261950 -8.135147 61.951366 236 219 232
-6.270162 -8.012094 62.032608 190 163 182
-6.278419 -7.888748 62.114300 128 92 115
-6.286674 -7.765048 62.195976 99 64 85
-6.294884 -7.640939 62.277199 117 84 103
-6.303006 -7.516376 62.357548 154 123 138
-6.311002 -7.391319 62.436657 185 157 169
-6.318836 -7.265735 62.514164 211 188 197
-6.326475 -7.139595 62.589729 236 222 228
-6.333885 -7.012878 62.663048 242 235 239
-6.341041 -6.885567 62.733837 221 212 216
-6.347915 -6.757652 62.801846 197 181 186
-6.354486 -6.629127 62.866852 199 180 187
-6.360734 -6.499993 62.928669 205 186 195
-6.366647 -6.370256 62.987167 183 163 174
-6.372216 -6.239930 63.042263 144 125 138
-6.377439 -6.109036 63.093941 116 98 112
-6.382322 -5.977600 63.142250 131 114 127
-6.386878 -5.845656 63.187317 180 165 175
-6.391125 -5.713243 63.229340 210 198 204
-6.395093 -5.580403 63.268593 221 213 216
-6.398814 -5.447186 63.305405 243 239 239
-6.402329 -5.313638 63.340183 254 254 254
-6.405682 -5.179809 63.373348 254 254 254
-6.408917 -5.045744 63.405361 254 254 254
-6.412081 -4.911487 63.436661 254 254 254
-6.415220 -4.777076 63.467712 254 254 254
-6.418373 -4.642542 63.498909 249 245 248
-6.421578 -4.507910 63.530621 229 214 221
-6.424864 -4.373196 63.563129 201 171 184
-6.428254 -4.238410 63.596661 185 149 164
-6.431758 -4.103553 63.631329 171 134 149
-6.435380 -3.968619 63.667168 159 120 135
-6.439114 -3.833597 63.704109 187 156 168
-6.442945 -3.698471 63.742004 233 221 226
-6.446847 -3.563222 63.780617 251 246 248
-6.450791 -3.427828 63.819633 236 218 227
-6.454738 -3.292268 63.858681 192 156 172
-6.458645 -3.156520 63.897339 155 112 132
-6.462467 -3.020565 63.935143 166 128 150
-6.466156 -2.884387 63.971634 195 163 186
-6.469664 -2.747977 64.006348 185 158 182
-6.472947 -2.611325 64.038826 147 123 149
-6.475964 -2.474432 64.068672 144 124 149
-6.478678 -2.337300 64.095528 193 180 197
-6.481060 -2.199940 64.119087 240 235 241
-6.483086 -2.062366 64.139130 248 245 249
-6.484742 -1.924595 64.155518 227 220 228
-6.486023 -1.786650 64.168190 207 195 207
-6.486933 -1.648556 64.177200 219 210 218
-6.487486 -1.510341 64.182671 245 242 244
-6.487704 -1.372030 64.184822 254 254 254
-6.487617 -1.233653 64.183968 250 245 249
-6.487267 -1.095235 64.180504 225 206 217
-6.486701 -0.956800 64.174904 178 140 158
-6.485973 -0.818369 64.167702 151 99 120
-6.485143 -0.679958 64.159485 168 109 128
-6.484273 -0.541579 64.150879 191 127 144
-6.483432 -0.403239 64.142563 194 126 140
-6.482688 -0.264939 64.135201 186 116 128
-6.482111 -0.126674 64.129486 180 108 118
-6.481764 0.011567 64.126053 174 100 109
-6.481712 0.149800 64.125542 164 90 99
-6.482011 0.288047 64.128502 158 81 91
-6.482713 0.426332 64.135445 158 78 89
-6.483858 0.564686 64.146767 161 80 93
-6.485478 0.703141 64.162804 164 82 95
-6.487597 0.841729 64.183754 165 82 95
-6.490222 0.980484 64.209732 161 77 89
-6.493352 1.119438 64.240700 153 69 81
-6.496975 1.258622 64.276543 148 63 75
-6.501067 1.398060 64.317024 145 60 72
-6.505594 1.537776 64.361809 144 57 69
-6.510512 1.677786 64.410477 145 57 68
-6.515773 1.818101 64.462524 149 60 71
-6.521320 1.958727 64.517403 153 63 74
-6.527095 2.099662 64.574524 156 64 75
-6.533035 2.240900 64.633293 157 66 75
-6.539081 2.382431 64.693108 158 66 75
-6.545174 2.524237 64.753387 155 64 72
-6.551259 2.666300 64.813591 148 58 65
-6.557289 2.808599 64.873245 143 53 59
-6.563221 2.951111 64.931931 143 55 59
-6.569019 3.093813 64.989296 144 57 61
-6.574657 3.236684 65.045082 143 57 61
-6.580117 3.379704 65.099091 140 56 60
-6.585385 3.522854 65.151215 135 54 59
-6.590456 3.666119 65.201385 128 49 54
-6.595332 3.809487 65.249619 119 44 48
-6.600016 3.952949 65.295959 117 43 47
-6.604517 4.096497 65.340492 116 45 47
-6.608844 4.240125 65.383293 115 45 49
-6.613007 4.383829 65.424484 113 44 47
-6.617013 4.527603 65.464111 110 42 46
-6.620867 4.671441 65.502243 110 42 46
-6.624568 4.815331 65.538857 110 42 46
-6.628111 4.959262 65.573914 108 41 45
-6.631487 5.103216 65.607315 107 40 43
-6.634679 5.247167 65.638893 105 39 42
-6.637661 5.391085 65.668396 103 39 42
-6.640407 5.534932 65.695557 103 39 42
-6.642878 5.678662 65.720009 102 39 42
-6.645038 5.822224 65.741371 100 39 42
-6.646840 5.965559 65.759201 99 38 41
-6.648240 6.108600 65.773056 98 38 40
-6.649190 6.251277 65.782455 98 38 40
-6.649644 6.393518 65.786949 98 38 41
-6.649555 6.535245 65.786064 98 38 41
-6.648881 6.676382 65.779404 98 38 41
-6.647585 6.816850 65.766571 98 38 41
-6.645633 6.956578 65.747269 98 36 40
-6.643003 7.095497 65.721237 96 35 39
-6.639677 7.233546 65.688332 93 34 38
-6.635648 7.370673 65.648476 92 34 38
-6.630919 7.506836 65.601692 90 35 38
-6.625503 7.642004 65.548111 89 36 38
-6.619423 7.776161 65.487961 88 37 38
-6.612713 7.909306 65.421577 87 37 38
-6.605415 8.041449 65.349380 86 37 37
-6.597582 8.172616 65.271881 84 36 36
-6.589273 8.302851 65.189674 83 35 35
-6.580554 8.432204 65.103409 83 34 34
-6.571495 8.560744 65.013794 85 34 36
-6.562170 8.688545 64.921532 86 35 36
-6.552651 8.815688 64.827362 87 35 37
-6.543012 8.942261 64.732002 87 37 38
-6.533322 9.068351 64.636131 87 38 39
-6.523644 9.194046 64.540390 87 39 40
-6.514038 9.319428 64.445343 86 40 40
-6.504550 9.444575 64.351486 85 41 41
-6.495222 9.569553 64.259201 83 41 41
-6.486085 9.694418 64.168808 81 41 41
-6.477161 9.819216 64.080521 79 40 41
-6.468461 9.943976 63.994446 78 39 40
-6.459985 10.068716 63.910591 75 38 38
-6.451724 10.193434 63.828861 72 36 37
-6.443662 10.318117 63.749100 69 35 35
-6.435772 10.442738 63.671051 67 34 34
-6.428026 10.567255 63.594406 66 33 34
-6.420381 10.691614 63.518776 65 33 33
-6.412799 10.815751 63.443764 64 32 33
-6.405232 10.939590 63.368900 63 31 33
-6.397632 11.063049 63.293709 62 32 34
-6.389948 11.186038 63.217690 63 33 34
-6.382130 11.308462 63.140347 63 34 34
-6.374128 11.430223 63.061180 62 34 34
-6.365895 11.551222 62.979729 61 33 33
-6.357386 11.671364 62.895550 59 32 32
-6.348562 11.790557 62.808250 57 32 32
-6.339387 11.908715 62.717484 57 32 32
-6.329834 12.025762 62.622959 56 32 32
-6.319880 12.141633 62.524483 55 32 33
-6.097857 -13.011183 61.642582 105 37 41
-6.095057 -12.872388 61.614273 109 41 45
-6.092031 -12.733241 61.583675 111 42 47
-6.088804 -12.593815 61.551064 109 41 46
-6.085411 -12.454186 61.516754 107 39 45
-6.081885 -12.314438 61.481113 106 38 43
-6.078268 -12.174660 61.444546 105 36 42
-6.074603 -12.034946 61.407501 106 36 42
-6.070937 -11.895389 61.370438 107 36 43
-6.067319 -11.756084 61.333870 111 38 46
-6.063801 -11.617130 61.298306 115 39 49
-6.060436 -11.478618 61.264290 120 41 52
-6.057277 -11.340639 61.232361 125 44 56
-6.054378 -11.203278 61.203053 131 49 60
-6.051790 -11.066612 61.176891 138 55 66
-6.049564 -10.930714 61.154388 143 60 69
-6.047746 -10.795640 61.136009 143 60 67
-6.046380 -10.661442 61.122196 139 57 62
-6.045504 -10.528158 61.113342 138 56 59
-6.045152 -10.395813 61.109791 138 57 60
-6.045352 -10.264420 61.111805 138 57 61
-6.046125 -10.133980 61.119625 138 57 61
-6.047488 -10.004480 61.133396 137 57 62
-6.049449 -9.875899 61.153221 136 58 64
-6.052011 -9.748200 61.179123 137 62 68
-6.055169 -9.621337 61.211048 141 69 76
-6.058913 -9.495255 61.248898 148 79 87
-6.063226 -9.369887 61.292496 160 95 105
-6.068083 -9.245161 61.341595 177 116 127
-6.073456 -9.120998 61.395908 182 127 139
-6.079309 -8.997313 61.455082 164 115 127
-6.085604 -8.874015 61.518711 137 94 108
-6.092296 -8.751014 61.586361 124 85 102
-6.099339 -8.628217 61.657555 124 88 108
-6.106682 -8.505532 61.731785 145 111 133
-6.114275 -8.382870 61.808548 190 163 182
-6.122067 -8.260144 61.887314 226 206 221
-6.130006 -8.137275 61.967567 220 195 214
-6.138041 -8.014185 62.048798 177 140 165
-6.146126 -7.890808 62.130520 127 86 112
-6.154212 -7.767081 62.212265 106 66 90
-6.162257 -7.642950 62.293587 121 85 105
-6.170219 -7.518369 62.374081 157 122 140
-6.178061 -7.393295 62.453350 194 161 177
-6.185746 -7.267696 62.531040 219 187 203
-6.193241 -7.141542 62.606796 227 202 215
-6.200513 -7.014810 62.680309 214 195 207
-6.207534 -6.887483 62.751293 177 158 171
-6.214280 -6.759550 62.819481 145 123 136
-6.220726 -6.631003 62.884644 156 136 150
-6.226854 -6.501844 62.946598 181 164 180
-6.232651 -6.372079 63.005196 168 154 171
-6.238108 -6.241721 63.060356 122 110 128
-6.243223 -6.110791 63.112064 93 82 99
-6.248001 -5.979315 63.160362 133 125 136
-6.252454 -5.847328 63.205383 209 204 210
-6.256603 -5.714868 63.247322 243 239 242
-6.260475 -5.581980 63.286461 244 241 243
-6.264104 -5.448712 63.323147 250 249 249
-6.267529 -5.315114 63.357777 254 254 254
-6.270796 -5.181234 63.390797 254 254 254
-6.273948 -5.047122 63.422661 254 254 254
-6.277033 -4.912817 63.453846 254 254 254
-6.280095 -4.778363 63.484802 252 251 252
-6.283176 -4.643788 63.515945 237 230 235
-6.286313 -4.509119 63.547661 207 188 200
-6.289536 -4.374373 63.580231 194 164 181
-6.292865 -4.239558 63.613888 208 176 193
-6.296313 -4.104676 63.648750 201 168 184
-6.299885 -3.969722 63.684856 165 125 143
-6.303572 -3.834682 63.722130 165 126 141
-6.307360 -3.699540 63.760422 212 187 196
-6.311223 -3.564276 63.799473 247 236 240
-6.315130 -3.428867 63.838966 246 231 237
-6.319042 -3.293290 63.878510 213 181 193
-6.322915 -3.157524 63.917660 169 128 145
-6.326702 -3.021547 63.955940 155 116 135
-6.330354 -2.885345 63.992859 167 133 155
-6.333823 -2.748903 64.027924 166 137 162
-6.337062 -2.612216 64.060677 139 114 141
-6.340030 -2.475281 64.090675 128 107 134
-6.342689 -2.338104 64.117554 170 154 176
-6.345007 -2.200692 64.140991 226 218 230
-6.346962 -2.063061 64.160759 250 248 252
-6.348539 -1.925230 64.176689 248 245 248
-6.349731 -1.787222 64.188744 240 235 240
-6.350543 -1.649064 64.196945 241 237 241
-6.350987 -1.510783 64.201447 247 243 247
-6.351088 -1.372408 64.202461 248 243 247
-6.350876 -1.233967 64.200317 248 241 246
-6.350391 -1.095490 64.195419 241 225 235
-6.349683 -0.956999 64.188255 213 182 198
-6.348805 -0.818518 64.179390 188 142 162
-6.347819 -0.680063 64.169411 195 140 158
-6.346788 -0.541647 64.158989 216 157 171
-6.345780 -0.403278 64.148804 220 159 170
-6.344865 -0.264957 64.139549 205 140 149
-6.344110 -0.126678 64.131927 186 119 126
-6.343584 0.011567 64.126602 177 108 114
-6.343349 0.149797 64.124222 175 104 110
-6.343461 0.288033 64.125359 172 99 106
-6.343972 0.426300 64.130531 168 92 100
-6.344924 0.564628 64.140152 167 88 99
-6.346349 0.703050 64.154556 171 90 102
-6.348269 0.841601 64.173958 174 91 103
-6.350693 0.980312 64.198463 166 81 94
-6.353620 1.119218 64.228058 152 67 79
-6.357038 1.258349 64.262604 146 60 72
-6.360922 1.397731 64.301872 145 59 70
-6.365240 1.537387 64.345520 146 59 70
-6.369949 1.677334 64.393127 149 62 71
-6.375000 1.817584 64.444183 154 65 76
-6.380336 1.958142 64.498131 158 68 79
-6.385901 2.099007 64.554390 159 67 78
-6.391634 2.240174 64.612335 159 66 76
-6.397474 2.381630 64.671371 158 65 75
-6.403364 2.523361 64.730911 156 64 73
-6.409251 2.665347 64.790428 150 59 66
-6.415086 2.807567 64.849411 144 54 60
-6.420828 2.949999 64.907455 144 56 60
-6.426442 3.092619 64.964203 145 58 61
-6.431901 3.235406 65.019394 142 57 60
-6.437187 3.378340 65.072830 137 54 57
-6.442288 3.521404 65.124390 131 50 55
-6.447197 3.664580 65.174019 125 46 51
-6.451916 3.807858 65.221718 119 43 47
-6.456449 3.951228 65.267540 117 43 47
-6.460803 4.094682 65.311554 118 46 50
-6.464987 4.238215 65.353851 118 47 51
-6.469011 4.381822 65.394531 116 45 49
-6.472882 4.525497 65.433670 112 43 47
-6.476604 4.669233 65.471291 112 43 47
-6.480177 4.813021 65.507408 111 42 46
-6.483596 4.956847 65.541977 109 41 45
-6.486851 5.100693 65.574875 107 40 43
-6.489927 5.244535 65.605965 105 39 42
-6.492798 5.388343 65.634995 104 39 43
-6.495439 5.532079 65.661690 104 40 43
-6.497815 5.675699 65.685707 104 41 44
-6.499888 5.819150 65.706657 102 40 44
-6.501615 5.962376 65.724121 100 39 42
-6.502954 6.105312 65.737656 99 38 41
-6.503859 6.247890 65.746811 99 39 40
-6.504286 6.390037 65.751122 99 39 40
-6.504190 6.531679 65.750160 98 38 40
-6.503532 6.672739 65.743507 99 38 41
-6.502277 6.813144 65.730812 100 38 42
-6.500393 6.952822 65.711769 100 38 42
-6.497858 7.091708 65.686134 98 36 40
-6.494655 7.229739 65.653763 95 35 38
-6.490778 7.366867 65.614578 94 35 38
-6.486231 7.503050 65.568604 91 36 38
-6.481024 7.638257 65.515976 89 37 38
-6.475180 7.772472 65.456894 88 37 38
-6.468730 7.905693 65.391693 87 37 38
-6.461716 8.037930 65.320786 86 37 38
-6.454185 8.169208 65.244659 85 37 38
-6.446195 8.299566 65.163887 85 35 37
-6.437808 8.429056 65.079102 85 35 36
-6.429091 8.557742 64.990990 85 35 37
-6.420115 8.685696 64.900238 85 34 37
-6.410949 8.812999 64.807587 85 35 36
-6.401663 8.939734 64.713715 86 36 36
-6.392325 9.065992 64.619316 86 38 37
-6.382997 9.191857 64.525024 85 39 38
-6.373735 9.317411 64.431396 85 40 39
-6.364588 9.442733 64.338928 84 40 39
-6.355597 9.567890 64.248039 83 40 40
-6.346793 9.692943 64.159042 82 40 40
-6.338201 9.817939 64.072189 80 40 40
-6.329833 9.942912 63.987595 78 40 40
-6.321693 10.067883 63.905308 76 38 39
-6.313776 10.192861 63.825272 73 37 37
-6.306068 10.317835 63.747356 70 36 36
-6.298550 10.442788 63.671352 68 35 35
-6.291192 10.567683 63.596977 67 34 34
-6.283962 10.692474 63.523891 66 34 34
-6.276823 10.817107 63.451721 65 33 34
-6.269732 10.941513 63.380039 64 33 34
-6.262643 11.065614 63.308380 63 33 34
-6.255510 11.189327 63.236275 62 33 35
-6.248285 11.312561 63.163231 62 34 34
-6.240917 11.435220 63.088753 61 34 34
-6.233360 11.557206 63.012360 60 33 34
-6.225567 11.678420 62.933578 58 32 34
-6.217495 11.798766 62.851982 57 32 33
-6.209105 11.918150 62.767170 56 32 33
-6.200361 12.036481 62.678780 55 32 34
-5.967494 -13.016673 61.668594 105 37 41
-5.964691 -12.877684 61.639622 110 41 46
-5.961653 -12.738319 61.608234 111 43 48
-5.958411 -12.598658 61.574730 109 41 46
-5.954998 -12.458783 61.539459 107 38 44
-5.951452 -12.318784 61.502811 105 37 43
-5.947815 -12.178758 61.465229 104 35 42
-5.944133 -12.038803 61.427181 104 34 42
-5.940454 -11.899017 61.389164 106 35 42
-5.936829 -11.759502 61.351700 110 37 46
-5.933311 -11.620358 61.315338 114 39 49
-5.929952 -11.481679 61.280628 120 41 53
-5.926806 -11.343558 61.248123 125 45 57
-5.923927 -11.206080 61.218365 131 49 61
-5.921364 -11.069324 61.191879 138 55 66
-5.919166 -10.933354 61.169163 144 61 71
-5.917378 -10.798232 61.150688 144 61 69
-5.916041 -10.664002 61.136875 140 58 63
-5.915191 -10.530698 61.128090 140 58 61
-5.914859 -10.398342 61.124657 141 60 62
-5.915069 -10.266943 61.126831 141 61 63
-5.915842 -10.136498 61.134811 141 61 63
-5.917189 -10.006991 61.148739 140 60 64
-5.919119 -9.878397 61.168686 139 61 66
-5.921633 -9.750676 61.194664 139 66 70
-5.924725 -9.623784 61.226616 143 72 78
-5.928384 -9.497662 61.264427 148 80 87
-5.932593 -9.372246 61.307922 156 91 99
-5.937329 -9.247462 61.356865 166 105 114
-5.942564 -9.123235 61.410965 170 113 123
-5.948266 -8.999480 61.469887 163 111 121
-5.954396 -8.876110 61.533237 151 104 117
-5.960914 -8.753036 61.600594 146 103 118
-5.967775 -8.630168 61.671497 145 104 123
-5.974932 -8.507416 61.745457 153 113 136
-5.982336 -8.384690 61.821972 177 141 164
-5.989939 -8.261909 61.900539 199 165 187
-5.997690 -8.138991 61.980644 196 157 183
-6.005541 -8.015862 62.061779 171 127 155
-6.013445 -7.892451 62.143459 138 93 120
-6.021358 -7.768699 62.225224 118 75 100
-6.029234 -7.644549 62.306622 126 84 107
-6.037035 -7.519954 62.387234 155 114 136
-6.044721 -7.394871 62.466663 194 155 176
-6.052257 -7.269266 62.544540 223 184 206
-6.059608 -7.143106 62.620514 218 183 205
-6.066744 -7.016370 62.694256 183 152 173
-6.073635 -6.889039 62.765465 140 113 134
-6.080255 -6.761099 62.833878 120 96 116
-6.086581 -6.632544 62.899250 137 117 137
-6.092594 -6.503372 62.961388 160 146 167
-6.098280 -6.373592 63.020153 148 138 160
-6.103631 -6.243215 63.075447 103 97 117
-6.108644 -6.112262 63.127254 84 79 98
-6.113325 -5.980759 63.175617 140 137 149
-6.117685 -5.848742 63.220676 222 221 225
-6.121744 -5.716250 63.262627 252 251 253
-6.125531 -5.583329 63.301758 251 249 252
-6.129078 -5.450026 63.338413 253 252 254
-6.132426 -5.316392 63.373013 254 253 254
-6.135618 -5.182477 63.405994 254 253 254
-6.138700 -5.048330 63.437847 254 254 254
-6.141717 -4.913994 63.469032 252 252 252
-6.144717 -4.779509 63.500031 239 236 239
-6.147739 -4.644907 63.531258 208 197 206
-6.150820 -4.510215 63.563099 179 155 172
-6.153991 -4.375449 63.595867 185 154 175
-6.157272 -4.240617 63.629776 219 191 210
-6.160676 -4.105721 63.664959 224 197 214
-6.164207 -3.970756 63.701443 182 142 162
-6.167856 -3.835706 63.739151 153 106 127
-6.171608 -3.700556 63.777931 188 150 167
-6.175439 -3.565284 63.817513 238 217 227
-6.179314 -3.429866 63.857559 251 238 244
-6.183195 -3.294278 63.897671 234 211 220
-6.187038 -3.158498 63.937378 202 167 180
-6.190794 -3.022504 63.976192 170 132 148
-6.194413 -2.886279 64.013596 157 121 142
-6.197846 -2.749811 64.049072 158 125 150
-6.201046 -2.613091 64.082146 143 114 142
-6.203970 -2.476119 64.112358 124 98 127
-6.206579 -2.338897 64.139320 143 121 147
-6.208841 -2.201437 64.162697 195 181 198
-6.210733 -2.063752 64.182251 236 231 238
-6.212239 -1.925864 64.197807 251 250 252
-6.213353 -1.787795 64.209320 253 252 253
-6.214078 -1.649574 64.216812 249 246 249
-6.214428 -1.511229 64.220428 238 226 235
-6.214426 -1.372791 64.220413 224 205 218
-6.214104 -1.234290 64.217079 223 200 216
-6.213501 -1.095753 64.210854 230 203 220
-6.212668 -0.957208 64.202248 227 192 212
-6.211659 -0.818676 64.191811 214 170 189
-6.210534 -0.680177 64.180183 215 161 178
-6.209357 -0.541724 64.168022 230 173 186
-6.208198 -0.403324 64.156052 238 181 190
-6.207126 -0.264979 64.144966 225 165 171
-6.206209 -0.126685 64.135490 203 137 141
-6.205513 0.011568 64.128311 188 120 123
-6.205104 0.149797 64.124077 184 115 118
-6.205038 0.288024 64.123390 183 111 115
-6.205364 0.426275 64.126762 178 104 110
-6.206126 0.564579 64.134636 177 99 107
-6.207355 0.702971 64.147331 182 101 111
-6.209073 0.841484 64.165092 183 100 111
-6.211291 0.980152 64.188011 170 85 97
-6.214006 1.119009 64.216072 152 66 77
-6.217209 1.258085 64.249168 144 58 68
-6.220873 1.397408 64.287041 144 58 67
-6.224968 1.537001 64.329353 145 60 68
-6.229451 1.676880 64.375679 151 65 73
-6.234274 1.817058 64.425522 161 73 82
-6.239382 1.957540 64.478310 168 78 88
-6.244719 2.098326 64.533455 165 74 84
-6.250223 2.239411 64.590340 158 66 76
-6.255838 2.380783 64.648369 155 63 73
-6.261507 2.522427 64.706940 154 62 71
-6.267175 2.664323 64.765518 150 59 67
-6.272797 2.806451 64.823616 146 56 63
-6.278330 2.948787 64.880806 145 58 63
-6.283743 3.091311 64.936737 144 58 62
-6.289008 3.234000 64.991142 139 56 59
-6.294106 3.376835 65.043831 134 52 55
-6.299025 3.519796 65.094666 128 48 52
-6.303761 3.662870 65.143600 123 45 49
-6.308312 3.806043 65.190636 120 44 47
-6.312683 3.949307 65.235802 120 45 49
-6.316882 4.092654 65.279198 122 48 52
-6.320917 4.236078 65.320892 122 49 53
-6.324797 4.379575 65.360992 118 47 51
-6.328528 4.523138 65.399551 115 45 49
-6.332116 4.666761 65.436623 113 44 48
-6.335558 4.810434 65.472198 111 43 46
-6.338852 4.954144 65.506241 109 41 45
-6.341987 5.097874 65.538635 107 40 44
-6.344947 5.241599 65.569229 105 40 43
-6.347712 5.385289 65.597794 104 39 43
-6.350253 5.528908 65.624054 105 41 45
-6.352538 5.672412 65.647675 105 42 45
-6.354532 5.815751 65.668274 104 41 44
-6.356194 5.958867 65.685448 102 40 43
-6.357482 6.101700 65.698761 100 39 41
-6.358355 6.244181 65.707779 99 39 40
-6.358768 6.386240 65.712059 99 39 41
-6.358683 6.527805 65.711166 99 38 41
-6.358059 6.668803 65.704727 99 38 41
-6.356864 6.809160 65.692375 101 39 42
-6.355069 6.948808 65.673828 101 39 43
-6.352652 7.087681 65.648842 99 37 41
-6.349597 7.225722 65.617279 96 36 39
-6.345900 7.362881 65.579071 94 36 38
-6.341560 7.499115 65.534225 91 37 38
-6.336590 7.634398 65.482864 89 37 39
-6.331011 7.768710 65.425201 88 38 39
-6.324850 7.902047 65.361542 87 38 39
-6.318147 8.034421 65.292267 86 37 39
-6.310946 8.165853 65.217857 85 37 38
-6.303302 8.296379 65.138863 85 35 37
-6.295273 8.426050 65.055893 85 35 37
-6.286923 8.554926 64.969604 85 35 37
-6.278318 8.683077 64.880676 84 35 36
-6.269525 8.810581 64.789810 84 35 36
-6.260612 8.937522 64.697693 83 36 35
-6.251641 9.063982 64.604996 83 37 36
-6.242675 9.190050 64.512344 83 38 37
-6.233769 9.315807 64.420303 83 38 37
-6.224970 9.441330 64.329369 82 39 38
-6.216320 9.566690 64.239983 81 39 39
-6.207851 9.691949 64.152466 81 39 40
-6.199589 9.817157 64.067085 81 40 41
-6.191550 9.942354 63.984005 79 40 41
-6.183739 10.067566 63.903290 76 38 39
-6.176155 10.192803 63.824917 73 37 37
-6.168789 10.318069 63.748798 71 36 36
-6.161625 10.443346 63.674759 69 36 35
-6.154639 10.568611 63.602562 68 35 35
-6.147801 10.693823 63.531902 68 35 35
-6.141079 10.818933 63.462433 67 34 35
-6.134435 10.943884 63.393768 65 34 35
-6.127826 11.068602 63.325474 64 34 35
-6.121208 11.193009 63.257084 63 33 35
-6.114534 11.317019 63.188122 62 33 35
-6.107758 11.440537 63.118092 61 33 35
-6.100830 11.563468 63.046497 59 33 35
-6.093703 11.685708 62.972847 57 32 35
-6.086332 11.807157 62.896675 56 32 35
-6.078672 11.927711 62.817520 56 32 34
-6.070684 12.047273 62.734974 55 32 34
-5.836866 -13.021824 61.692997 104 37 42
-5.834063 -12.882646 61.663372 110 42 47
-5.831019 -12.743067 61.631195 111 43 49
-5.827765 -12.603172 61.596798 110 41 47
-5.824335 -12.463052 61.560547 107 39 45
-5.820771 -12.322803 61.522873 106 37 43
-5.817116 -12.182526 61.484245 104 35 42
-5.813418 -12.042327 61.445164 104 34 42
-5.809728 -11.902311 61.406155 106 35 43
-5.806096 -11.762583 61.367771 110 36 46
-5.802577 -11.623246 61.330582 114 38 49
-5.799226 -11.484401 61.295155 119 41 53
-5.796094 -11.346139 61.262058 123 43 56
-5.793235 -11.208548 61.231838 129 47 59
-5.790698 -11.071701 61.205021 139 57 67
-5.788529 -10.935667 61.182102 148 65 74
-5.786773 -10.800500 61.163532 148 65 72
-5.785466 -10.666243 61.149719 144 62 67
-5.784642 -10.532924 61.141010 144 62 65
-5.784329 -10.400562 61.137703 146 63 66
-5.784549 -10.269161 61.140034 146 64 67
-5.785319 -10.138713 61.148170 145 65 67
-5.786650 -10.009200 61.162235 144 65 68
-5.788546 -9.880591 61.182274 143 66 70
-5.791007 -9.752847 61.208282 143 69 73
-5.794026 -9.625918 61.240196 144 73 79
-5.797592 -9.499749 61.277889 148 79 87
-5.801689 -9.374273 61.321186 154 88 97
-5.806294 -9.249422 61.369862 160 96 107
-5.811381 -9.125117 61.423634 164 104 116
-5.816919 -9.001279 61.482170 166 110 122
-5.822874 -8.877822 61.545105 165 113 125
-5.829206 -8.754662 61.612034 163 114 129
-5.835874 -8.631709 61.682510 160 112 130
-5.842833 -8.508877 61.756062 157 110 132
-5.850038 -8.386080 61.832218 163 116 141
-5.857441 -8.263235 61.910469 174 128 154
-5.864996 -8.140263 61.990322 181 133 161
-5.872656 -8.017089 62.071281 176 127 156
-5.880374 -7.893645 62.152859 154 106 134
-5.888107 -7.769868 62.234585 131 84 111
-5.895812 -7.645703 62.316025 129 83 109
-5.903448 -7.521099 62.396736 149 105 132
-5.910978 -7.396014 62.476322 185 142 169
-5.918365 -7.270411 62.554394 215 172 200
-5.925574 -7.144257 62.630600 207 166 196
-5.932575 -7.017528 62.704594 165 128 157
-5.939337 -6.890203 62.776070 129 96 125
-5.945835 -6.762269 62.844746 123 96 124
-5.952045 -6.633718 62.910381 136 116 143
-5.957947 -6.504548 62.972767 144 131 157
-5.963528 -6.374765 63.031757 126 118 144
-5.968779 -6.244384 63.087257 88 85 109
-5.973698 -6.113422 63.139244 89 86 109
-5.978288 -5.981909 63.187763 158 156 170
-5.982564 -5.849878 63.232956 230 230 234
-5.986544 -5.717370 63.275021 251 249 253
-5.990255 -5.584431 63.314251 249 247 251
-5.993732 -5.451109 63.351002 252 251 253
-5.997015 -5.317456 63.385696 254 253 254
-6.000146 -5.183523 63.418789 254 252 254
-6.003171 -5.049357 63.450760 254 253 254
-6.006136 -4.915005 63.482101 247 243 247
-6.009086 -4.780506 63.513279 218 207 217
-6.012062 -4.645893 63.544739 179 160 178
-6.015101 -4.511191 63.576859 171 145 167
-6.018232 -4.376418 63.609955 199 172 194
-6.021478 -4.241582 63.644253 232 212 228
-6.024848 -4.106684 63.679882 240 221 234
-6.028347 -3.971717 63.716862 206 172 191
-6.031967 -3.836667 63.755123 163 117 141
-6.035691 -3.701517 63.794487 176 134 156
-6.039495 -3.566243 63.834690 228 204 216
-6.043344 -3.430823 63.875378 252 243 248
-6.047200 -3.295230 63.916126 249 239 244
-6.051016 -3.159441 63.956463 232 211 220
-6.054744 -3.023433 63.995865 193 160 176
-6.058334 -2.887191 64.033813 159 121 142
-6.061736 -2.750699 64.069763 156 120 145
-6.064901 -2.613950 64.103218 156 123 152
-6.067785 -2.476943 64.133705 136 105 136
-6.070351 -2.339681 64.160820 124 96 126
-6.072565 -2.202175 64.184219 150 128 152
-6.074402 -2.064440 64.203644 198 183 198
-6.075847 -1.926497 64.218918 232 224 231
-6.076894 -1.788370 64.229973 247 242 246
-6.077545 -1.650089 64.236862 245 239 244
-6.077816 -1.511683 64.239716 221 202 215
-6.077726 -1.373184 64.238770 192 159 180
-6.077309 -1.234622 64.234367 184 143 168
-6.076606 -1.096028 64.226944 194 151 175
-6.075665 -0.957428 64.216995 205 160 183
-6.074541 -0.818846 64.205109 207 157 177
-6.073294 -0.680302 64.191933 210 154 169
-6.071989 -0.541809 64.178139 222 163 175
-6.070694 -0.403377 64.164452 233 175 183
-6.069479 -0.265007 64.151611 234 173 178
-6.068412 -0.126695 64.140327 224 158 160
-6.067559 0.011568 64.131317 207 140 141
-6.066985 0.149800 64.125244 195 126 127
-6.066745 0.288021 64.122711 186 115 117
-6.066890 0.426258 64.124245 182 108 112
-6.067462 0.564541 64.130295 185 108 114
-6.068494 0.702904 64.141197 191 110 118
-6.070008 0.841381 64.157196 188 104 114
-6.072013 0.980006 64.178391 171 87 96
-6.074509 1.118812 64.204765 153 67 76
-6.077484 1.257832 64.236214 145 59 67
-6.080915 1.397092 64.272484 144 59 66
-6.084772 1.536616 64.313248 144 60 66
-6.089013 1.676421 64.358070 152 67 73
-6.093591 1.816520 64.406456 169 83 90
-6.098451 1.956918 64.457832 183 95 103
-6.103540 2.097616 64.511612 176 87 96
-6.108798 2.238608 64.567184 160 70 80
-6.114167 2.379884 64.623940 154 63 72
-6.119594 2.521427 64.681297 153 61 71
-6.125025 2.663219 64.738701 150 60 69
-6.130415 2.805241 64.795677 149 60 67
-6.135725 2.947469 64.851791 147 60 66
-6.140919 3.089881 64.906700 143 59 63
-6.145974 3.232457 64.960121 138 55 59
-6.150869 3.375175 65.011864 133 51 55
-6.155595 3.518020 65.061821 127 47 51
-6.160145 3.660975 65.109901 123 44 47
-6.164518 3.804029 65.156136 121 44 47
-6.168720 3.947172 65.200539 123 47 50
-6.172756 4.090397 65.243195 125 50 54
-6.176635 4.233698 65.284195 123 50 54
-6.180366 4.377071 65.323631 119 48 51
-6.183954 4.520510 65.361557 116 46 49
-6.187404 4.664008 65.398018 114 44 48
-6.190715 4.807555 65.433014 112 43 47
-6.193883 4.951139 65.466507 109 41 45
-6.196899 5.094743 65.498383 107 41 44
-6.199748 5.238342 65.528488 105 40 43
-6.202409 5.381908 65.556618 105 40 44
-6.204855 5.525404 65.582474 105 42 44
-6.207057 5.668789 65.605751 105 42 45
-6.208980 5.812013 65.626068 103 41 43
-6.210586 5.955021 65.643044 101 40 42
-6.211836 6.097752 65.656258 100 39 41
-6.212689 6.240141 65.665268 99 38 40
-6.213105 6.382121 65.669670 99 38 40
-6.213046 6.523620 65.669037 99 38 41
-6.212474 6.664568 65.663002 100 38 42
-6.211360 6.804894 65.651222 100 39 42
-6.209675 6.944532 65.633415 100 39 42
-6.207398 7.083417 65.609344 99 38 40
-6.204515 7.221494 65.578880 96 37 39
-6.201021 7.358713 65.541946 93 38 38
-6.196916 7.495034 65.498550 91 38 39
-6.192209 7.630426 65.448807 89 38 39
-6.186920 7.764874 65.392906 88 39 40
-6.181075 7.898370 65.331123 86 39 40
-6.174709 8.030922 65.263840 85 37 39
-6.167864 8.162552 65.191498 83 36 37
-6.160592 8.293291 65.114624 84 36 38
-6.152944 8.423188 65.033798 84 36 38
-6.144983 8.552299 64.949646 84 37 37
-6.136769 8.680690 64.862831 83 37 37
-6.128368 8.808436 64.774033 83 37 36
-6.119842 8.935618 64.683914 82 37 36
-6.111253 9.062319 64.593140 80 37 36
-6.102661 9.188622 64.502319 80 37 36
-6.094118 9.314610 64.412025 80 37 36
-6.085672 9.440360 64.322762 80 37 37
-6.077365 9.565944 64.234962 80 38 38
-6.069232 9.691424 64.148994 80 38 39
-6.061297 9.816856 64.065125 80 39 41
-6.053579 9.942285 63.983555 79 39 40
-6.046089 10.067739 63.904385 76 38 39
-6.038826 10.193235 63.827621 73 37 37
-6.031787 10.318784 63.753220 71 36 36
-6.024958 10.444377 63.681046 70 36 35
-6.018322 10.569996 63.610897 69 35 35
-6.011851 10.695608 63.542507 68 35 35
-6.005518 10.821174 63.475571 67 35 35
-5.999289 10.946639 63.409733 66 35 35
-5.993125 11.071941 63.344582 65 34 36
-5.986984 11.197005 63.279671 63 34 36
-5.980821 11.321749 63.214531 62 34 36
-5.974590 11.446080 63.148674 61 34 36
-5.968243 11.569904 63.081589 59 33 35
-5.961731 11.693114 63.012764 58 32 35
-5.955007 11.815607 62.941689 56 31 35
-5.948023 11.937273 62.867878 55 31 35
-5.940735 12.058002 62.790844 54 32 34
-5.703155 -12.887202 61.685184 107 41 47
-5.700108 -12.747416 61.652225 110 42 48
-5.696844 -12.607292 61.616932 109 41 47
-5.693401 -12.466928 61.579693 107 39 45
-5.689821 -12.326427 61.540970 106 37 44
-5.686151 -12.185901 61.501278 105 35 42
-5.682440 -12.045458 61.461136 105 34 42
-5.678739 -11.905210 61.421108 106 34 43
-5.675103 -11.765267 61.381775 110 35 45
-5.671585 -11.625738 61.343731 114 37 48
-5.668242 -11.486726 61.307568 119 39 51
-5.665125 -11.348325 61.273857 122 40 52
-5.662287 -11.210621 61.243164 128 45 56
-5.659776 -11.073689 61.216007 142 59 68
-5.657638 -10.937593 61.192883 154 70 78
-5.655913 -10.802387 61.174217 154 71 76
-5.654636 -10.668108 61.160412 150 67 71
-5.653839 -10.534781 61.151787 148 66 68
-5.653545 -10.402417 61.148609 147 65 67
-5.653775 -10.271019 61.151093 147 66 67
-5.654541 -10.140572 61.159382 148 67 69
-5.655852 -10.011053 61.173557 147 69 71
-5.657710 -9.882429 61.193657 148 72 75
-5.660114 -9.754659 61.219654 147 73 77
-5.663055 -9.627690 61.251469 145 74 80
-5.666523 -9.501467 61.288971 147 78 86
-5.670500 -9.375925 61.331989 152 85 95
-5.674966 -9.250994 61.380295 158 93 105
-5.679895 -9.126600 61.433617 163 100 113
-5.685261 -9.002666 61.491653 166 105 119
-5.691030 -8.879112 61.554047 168 109 123
-5.697166 -8.755852 61.620411 166 110 125
-5.703631 -8.632804 61.690334 160 105 123
-5.710382 -8.509883 61.763363 153 99 119
-5.717379 -8.387005 61.839035 154 100 124
-5.724576 -8.264090 61.916874 166 113 138
-5.731926 -8.141059 61.996384 180 128 155
-5.739388 -8.017838 62.077080 182 132 159
-5.746914 -7.894360 62.158489 161 112 141
-5.754464 -7.770561 62.240139 133 87 116
-5.761993 -7.646385 62.321583 124 79 109
-5.769463 -7.521779 62.402370 139 96 127
-5.776834 -7.396699 62.482101 168 126 158
-5.784072 -7.271107 62.560387 190 149 181
-5.791140 -7.144968 62.636833 182 142 175
-5.798007 -7.018257 62.711109 148 111 145
-5.804643 -6.890951 62.782887 123 91 124
-5.811022 -6.763035 62.851875 122 96 128
-5.817119 -6.634502 62.917824 128 109 140
-5.822915 -6.505348 62.980515 127 115 144
-5.828396 -6.375579 63.039799 110 104 132
-5.833554 -6.245208 63.095581 83 81 108
-5.838385 -6.114254 63.147831 99 98 123
-5.842895 -5.982746 63.196606 175 174 190
-5.847095 -5.850718 63.242035 237 236 242
-5.851005 -5.718211 63.284328 249 246 251
-5.854653 -5.585272 63.323788 246 243 249
-5.858072 -5.451949 63.360767 251 249 252
-5.861302 -5.318295 63.395702 254 254 254
-5.864385 -5.184361 63.429047 254 254 254
-5.867367 -5.050196 63.461300 254 252 253
-5.870293 -4.915845 63.492947 245 239 244
-5.873208 -4.781349 63.524471 217 201 215
-5.876152 -4.646739 63.556320 188 164 186
-5.879162 -4.512043 63.588875 193 168 191
-5.882266 -4.377277 63.622452 224 205 222
-5.885487 -4.242450 63.657284 247 238 246
-5.888834 -4.107562 63.693489 251 244 249
-5.892312 -3.972604 63.731098 233 212 225
-5.895910 -3.837564 63.770023 189 150 175
-5.899613 -3.702421 63.810081 173 130 156
-5.903397 -3.567154 63.850998 213 186 201
-5.907225 -3.431737 63.892406 248 240 245
-5.911059 -3.296144 63.933868 254 251 253
-5.914853 -3.160352 63.974903 246 233 240
-5.918557 -3.024336 64.014969 212 183 199
-5.922121 -2.888080 64.053520 172 132 155
-5.925494 -2.751568 64.090004 162 121 148
-5.928629 -2.614794 64.123909 167 130 160
-5.931480 -2.477756 64.154747 157 122 154
-5.934008 -2.340457 64.182091 136 103 135
-5.936181 -2.202908 64.205589 132 101 130
-5.937973 -2.065126 64.224976 151 123 147
-5.939368 -1.927131 64.240059 180 156 174
-5.940360 -1.788950 64.250793 209 190 202
-5.940951 -1.650611 64.257187 222 205 214
-5.941155 -1.512146 64.259399 205 176 192
-5.940994 -1.373587 64.257652 177 133 157
-5.940500 -1.234967 64.252312 163 112 139
-5.939713 -1.096315 64.243797 166 112 138
-5.938681 -0.957661 64.232635 175 120 143
-5.937459 -0.819028 64.219414 182 124 143
-5.936107 -0.680438 64.204788 188 127 142
-5.934689 -0.541905 64.189453 201 137 149
-5.933274 -0.403437 64.174149 215 150 159
-5.931929 -0.265040 64.159599 225 159 165
-5.930723 -0.126707 64.146561 227 159 163
-5.929722 0.011569 64.135735 218 149 151
-5.928989 0.149806 64.127808 203 134 135
-5.928582 0.288024 64.123398 187 117 119
-5.928549 0.426250 64.123039 179 106 109
-5.928932 0.564514 64.127190 185 109 114
-5.929765 0.702849 64.136200 193 113 120
-5.931068 0.841290 64.150291 190 107 115
-5.932853 0.979871 64.169601 174 90 97
-5.935120 1.118627 64.194115 155 70 77
-5.937856 1.257587 64.223717 146 61 67
-5.941042 1.396781 64.258171 144 60 66
-5.944645 1.536231 64.297142 143 59 64
-5.948627 1.675956 64.340210 150 66 71
-5.952942 1.815968 64.386879 172 87 93
-5.957537 1.956273 64.436584 190 104 111
-5.962359 2.096873 64.488739 183 96 104
-5.967351 2.237760 64.542725 164 77 84
-5.972457 2.378927 64.597954 155 66 74
-5.977623 2.520356 64.653831 152 63 71
-5.982800 2.662031 64.709816 150 61 70
-5.987941 2.803931 64.765427 149 61 69
-5.993009 2.946035 64.820236 147 61 67
-5.997970 3.088320 64.873901 143 59 64
-6.002800 3.230766 64.926147 138 56 61
-6.007481 3.373353 64.976776 133 53 57
-6.012002 3.516065 65.025665 129 49 52
-6.016355 3.658886 65.072754 125 45 48
-6.020541 3.801805 65.118034 123 45 47
-6.024564 3.944811 65.161545 124 48 50
-6.028431 4.087900 65.203362 126 50 53
-6.032149 4.231064 65.243576 123 50 53
-6.035725 4.374299 65.282265 119 48 51
-6.039167 4.517600 65.319489 117 46 49
-6.042478 4.660961 65.355293 114 44 48
-6.045657 4.804371 65.389679 112 43 47
-6.048700 4.947819 65.422592 109 41 46
-6.051599 5.091287 65.453949 107 41 44
-6.054339 5.234753 65.483589 105 41 43
-6.056901 5.378188 65.511299 104 41 43
-6.059259 5.521557 65.536804 104 41 43
-6.061385 5.664819 65.559799 103 41 42
-6.063247 5.807927 65.579933 101 40 42
-6.064807 5.950826 65.596809 100 39 41
-6.066030 6.093460 65.610039 99 38 40
-6.066877 6.235764 65.619202 98 37 39
-6.067311 6.377672 65.623886 98 37 39
-6.067294 6.519117 65.623711 98 37 40
-6.066793 6.660029 65.618286 99 38 41
-6.065778 6.800343 65.607315 99 39 42
-6.064224 6.939991 65.590500 99 39 41
-6.062109 7.078912 65.567627 98 39 40
-6.059421 7.217052 65.538551 96 38 40
-6.056153 7.354363 65.503204 93 38 38
-6.052305 7.490804 65.461586 90 38 38
-6.047886 7.626344 65.413788 88 38 39
-6.042911 7.760965 65.359985 87 39 40
-6.037406 7.894660 65.300438 87 39 40
-6.031401 8.027434 65.235489 84 37 39
-6.024936 8.159305 65.165565 82 35 37
-6.018055 8.290301 65.091148 83 36 38
-6.010811 8.420467 65.012787 85 37 39
-6.003258 8.549855 64.931091 85 38 39
-5.995453 8.678528 64.846680 84 39 38
-5.987459 8.806557 64.760216 82 39 37
-5.979334 8.934018 64.672333 81 38 37
-5.971138 9.060993 64.583687 79 38 36
-5.962927 9.187563 64.494881 78 37 36
-5.954754 9.313808 64.406479 79 36 36
-5.946665 9.439807 64.318993 79 36 36
-5.938703 9.565632 64.232872 79 37 37
-5.930901 9.691347 64.148483 79 37 38
-5.923288 9.817013 64.066147 79 38 39
-5.915885 9.942676 63.986073 78 38 38
-5.908703 10.068370 63.908394 76 37 38
-5.901748 10.194120 63.833160 74 37 36
-5.895018 10.319942 63.760372 72 35 34
-5.888505 10.445834 63.689926 70 35 34
-5.882194 10.571786 63.621670 69 35 34
-5.876064 10.697773 63.555370 68 35 34
-5.870091 10.823763 63.490765 68 35 34
-5.864244 10.949709 63.427517 67 35 34
-5.858487 11.075554 63.365250 65 35 35
-5.852781 11.201229 63.303543 64 35 36
-5.847085 11.326656 63.241936 63 34 36
-5.841353 11.451747 63.179935 61 34 36
-5.835536 11.576403 63.117023 59 34 36
-5.829587 11.700521 63.052673 58 33 36
-5.823454 11.823989 62.986340 57 33 35
-5.817089 11.946693 62.917492 56 32 35
-5.571951 -12.891295 61.704777 105 39 45
-5.568906 -12.751307 61.671051 107 41 47
-5.565638 -12.610961 61.634861 108 41 47
-5.562186 -12.470357 61.596634 107 39 46
-5.558594 -12.329609 61.556858 106 38 44
-5.554912 -12.188833 61.516079 105 36 43
-5.551189 -12.048147 61.474857 105 34 43
-5.547481 -11.907667 61.433792 106 34 43
-5.543842 -11.767511 61.393486 109 34 44
-5.540327 -11.627791 61.354561 113 36 45
-5.536993 -11.488614 61.317638 117 37 48
-5.533892 -11.350074 61.283302 120 37 48
-5.531076 -11.212260 61.252121 128 44 53
-5.528593 -11.075246 61.224617 146 62 69
-5.526485 -10.939095 61.201279 160 75 81
-5.524792 -10.803853 61.182522 159 74 78
-5.523545 -10.669558 61.168724 153 69 72
-5.522774 -10.536226 61.160179 149 66 68
-5.522499 -10.403868 61.157131 147 65 66
-5.522737 -10.272475 61.159763 147 66 66
-5.523497 -10.142032 61.168182 149 68 69
-5.524785 -10.012508 61.182453 151 72 74
-5.526603 -9.883870 61.202583 153 77 79
-5.528945 -9.756071 61.228519 150 76 80
-5.531804 -9.629060 61.260178 145 73 80
-5.535167 -9.502777 61.297421 144 75 83
-5.539018 -9.377160 61.340073 149 82 93
-5.543338 -9.252142 61.387913 157 90 104
-5.548104 -9.127650 61.440685 161 96 111
-5.553289 -9.003612 61.498104 162 98 114
-5.558863 -8.879948 61.559837 163 101 116
-5.564795 -8.756578 61.625526 162 101 117
-5.571048 -8.633426 61.694775 155 95 112
-5.577585 -8.510406 61.767162 147 88 106
-5.584365 -8.387441 61.842247 149 91 112
-5.591347 -8.264449 61.919563 161 106 128
-5.598488 -8.141356 61.998650 175 122 146
-5.605745 -8.018088 62.079018 174 125 151
-5.613076 -7.894577 62.160198 152 107 134
-5.620438 -7.770759 62.241722 125 84 114
-5.627789 -7.646575 62.323132 116 77 109
-5.635090 -7.521973 62.403984 128 92 125
-5.642303 -7.396907 62.483860 152 118 152
-5.649390 -7.271335 62.562347 167 133 167
-5.656318 -7.145223 62.639069 159 127 161
-5.663053 -7.018541 62.713650 141 111 145
-5.669565 -6.891267 62.785767 127 102 134
-5.675827 -6.763384 62.855110 127 106 137
-5.681815 -6.634882 62.921425 127 111 141
-5.687510 -6.505758 62.984489 125 114 142
-5.692896 -6.376018 63.044140 119 113 140
-5.697966 -6.245674 63.100288 107 103 130
-5.702717 -6.114745 63.152901 123 120 146
-5.707153 -5.983259 63.202026 185 182 200
-5.711287 -5.851252 63.247807 236 232 241
-5.715138 -5.718765 63.290455 247 241 250
-5.718734 -5.585844 63.330276 247 241 250
-5.722107 -5.452540 63.367634 251 249 253
-5.725297 -5.318904 63.402958 254 254 254
-5.728346 -5.184988 63.436718 254 254 254
-5.731298 -5.050842 63.469414 254 254 254
-5.734199 -4.916510 63.501537 250 246 250
-5.737092 -4.782034 63.533577 237 225 236
-5.740018 -4.647446 63.565983 222 207 221
-5.743012 -4.512772 63.599136 226 213 225
-5.746102 -4.378028 63.633354 243 236 242
-5.749309 -4.243223 63.668869 253 249 253
-5.752644 -4.108356 63.705795 254 250 254
-5.756108 -3.973418 63.744156 244 229 242
-5.759693 -3.838397 63.783859 199 167 193
-5.763382 -3.703271 63.824718 161 120 151
-5.767150 -3.568017 63.866447 191 159 181
