ply
format ascii 1.0
element vertex 1241
property float x
property float y
property float z
property uchar red
property uchar green
property uchar blue
end_header
-10.583515 1.614306 49.647552 75 52 62
-10.570492 1.719212 49.586460 75 52 61
-10.556665 1.823715 49.521599 75 52 62
-10.542098 1.927803 49.453266 74 53 62
-10.526866 2.031468 49.381809 72 54 62
-10.511052 2.134707 49.307625 71 55 62
-10.494741 2.237520 49.231113 70 56 62
-10.478018 2.339911 49.152660 68 55 62
-10.460960 2.441886 49.072643 67 53 60
-10.443640 2.543452 48.991394 63 49 57
-10.426118 2.644616 48.909199 63 47 56
-10.408443 2.745386 48.826286 63 48 59
-10.390655 2.845767 48.742836 63 46 60
-10.372778 2.945763 48.658981 63 47 60
-10.354835 3.045378 48.574806 65 49 62
-10.336835 3.144614 48.490368 68 52 63
-10.318789 3.243470 48.405716 71 55 65
-10.300707 3.341950 48.320892 73 59 67
-10.282602 3.440057 48.235958 75 61 70
-10.264492 3.537795 48.151005 78 64 72
-10.246405 3.635175 48.066158 79 64 74
-10.228374 3.732211 47.981571 79 64 75
-10.210447 3.828920 47.897480 80 64 76
-10.192677 3.925328 47.814117 80 64 77
-10.175123 4.021461 47.731773 81 66 80
-10.157852 4.117354 47.650757 85 70 85
-10.140928 4.213042 47.571365 88 75 91
-10.124415 4.308563 47.493900 90 79 96
-10.108369 4.403953 47.418629 90 80 99
-10.092838 4.499248 47.345776 89 80 98
-10.077855 4.594479 47.275486 87 79 97
-10.063437 4.689669 47.207848 86 78 97
-10.049585 4.784839 47.142872 86 79 97
-10.036283 4.879994 47.080471 86 80 98
-10.023496 4.975138 47.020489 86 81 99
-10.011178 5.070259 46.962704 86 83 100
-9.999267 5.165342 46.906830 87 85 101
-9.987693 5.260362 46.852535 88 87 103
-9.976385 5.355290 46.799488 90 89 105
-9.965266 5.450093 46.747330 91 90 106
-9.954268 5.544738 46.695740 91 90 106
-9.943328 5.639194 46.644417 90 87 104
-9.932391 5.733430 46.593113 90 86 104
-9.921419 5.827425 46.541645 92 86 104
-9.910386 5.921161 46.489883 93 87 103
-9.899277 6.014627 46.437771 94 87 102
-9.888095 6.107825 46.385319 94 87 99
-9.876851 6.200757 46.332573 92 85 95
-9.865568 6.293437 46.279644 89 81 90
-9.854276 6.385882 46.226669 86 79 86
-9.843010 6.478117 46.173824 84 77 84
-9.831814 6.570170 46.121300 83 76 82
-9.820731 6.662074 46.069313 82 75 81
-9.809810 6.753865 46.018082 81 75 80
-9.799105 6.845586 45.967861 81 75 80
-9.788669 6.937281 45.918903 80 74 79
-9.778563 7.029003 45.871506 79 72 79
-9.768855 7.120810 45.825958 80 72 80
-9.759616 7.212767 45.782616 80 72 82
-9.750922 7.304945 45.741833 79 70 82
-9.742858 7.397427 45.704006 77 69 83
-9.735511 7.490296 45.669540 77 69 85
-9.728968 7.583644 45.638847 77 69 85
-9.723315 7.677563 45.612331 76 70 86
-9.718635 7.772145 45.590374 75 70 87
-9.714995 7.867475 45.573299 74 69 87
-9.712455 7.963633 45.561382 74 69 86
-9.711052 8.060683 45.554802 74 70 85
-9.710804 8.158675 45.553638 74 70 84
-9.711703 8.257639 45.557858 74 71 84
-9.713720 8.357581 45.567322 75 72 85
-9.716796 8.458487 45.581749 76 72 86
-9.720847 8.560313 45.600754 76 72 87
-9.725772 8.662999 45.623856 76 71 88
-9.731444 8.766459 45.650467 75 71 88
-9.737723 8.870585 45.679916 75 70 88
-9.744456 8.975258 45.711502 73 69 86
-9.751481 9.080338 45.744457 73 67 84
-9.758633 9.185679 45.778008 73 66 82
-9.765745 9.291128 45.811371 73 65 81
-9.772655 9.396526 45.843788 72 65 79
-9.779207 9.501717 45.874523 71 65 78
-9.785252 9.606540 45.902874 71 64 77
-9.790648 9.710843 45.928192 69 63 74
-9.795277 9.814487 45.949905 66 61 72
-9.799026 9.917334 45.967491 65 59 70
-9.801799 10.019258 45.980499 65 59 69
-9.803519 10.120152 45.988567 65 60 69
-9.804127 10.219922 45.991421 64 60 69
-9.803586 10.318495 45.988880 64 59 68
-9.801881 10.415819 45.980885 63 59 67
-9.799026 10.511876 45.967491 62 59 67
-9.795059 10.606671 45.948887 61 58 66
-9.790053 10.700251 45.925404 60 58 66
-9.784112 10.792696 45.897530 59 58 65
-9.777371 10.884132 45.865913 58 58 65
-9.770002 10.974726 45.831341 58 58 65
-9.762203 11.064683 45.794754 58 57 66
-9.754198 11.154247 45.757202 57 57 65
-9.746240 11.243703 45.719868 58 56 64
-9.738595 11.333364 45.684010 60 56 64
-9.731546 11.423568 45.650944 61 55 64
-9.725372 11.514667 45.621983 62 55 63
-9.720354 11.607020 45.598442 62 56 63
-9.716757 11.700983 45.581566 62 55 62
-9.714821 11.796891 45.572487 61 54 61
-9.714762 11.895058 45.572208 60 54 60
-9.716755 11.995756 45.581554 60 52 59
-9.720934 12.099216 45.601162 59 51 59
-9.727383 12.205609 45.631413 58 50 58
-9.736135 12.315045 45.672474 57 49 58
-9.747167 12.427565 45.724216 56 49 57
-9.760396 12.543131 45.786278 54 48 57
-10.517654 1.083430 49.842621 78 58 68
-10.508913 1.189884 49.801197 78 58 68
-10.499339 1.296057 49.755821 78 57 68
-10.488906 1.401919 49.706383 78 56 67
-10.477609 1.507444 49.652843 77 54 66
-10.465457 1.612606 49.595257 77 54 65
-10.452484 1.717385 49.533779 77 54 63
-10.438737 1.821764 49.468636 77 54 64
-10.424281 1.925732 49.400127 77 55 65
-10.409186 2.029279 49.328594 76 57 67
-10.393534 2.132403 49.254417 75 58 67
-10.377400 2.235104 49.177963 74 58 67
-10.360868 2.337386 49.099617 72 58 65
-10.344009 2.439252 49.019722 69 55 63
-10.326887 2.540710 48.938587 65 50 59
-10.309558 2.641764 48.856461 64 47 58
-10.292063 2.742421 48.773552 64 48 60
-10.274435 2.842683 48.690014 64 48 61
-10.256697 2.942553 48.605953 64 48 62
-10.238860 3.042032 48.521431 66 51 64
-10.220933 3.141119 48.436470 68 54 65
-10.202920 3.239811 48.351109 71 57 67
-10.184828 3.338110 48.265369 74 60 69
-10.166667 3.436016 48.179306 76 63 71
-10.148451 3.533532 48.092983 79 65 72
-10.130208 3.630666 48.006531 80 65 74
-10.111974 3.727431 47.920120 81 65 75
-10.093793 3.823843 47.833961 82 65 77
-10.075724 3.919927 47.748333 82 65 79
-10.057830 4.015712 47.663536 83 67 82
-10.040181 4.111232 47.579899 86 71 87
-10.022853 4.206525 47.497784 91 77 94
-10.005914 4.301632 47.417507 93 81 100
-9.989431 4.396594 47.339397 93 82 101
-9.973462 4.491450 47.263721 91 81 101
-9.958052 4.586238 47.190693 89 80 100
-9.943227 4.680985 47.120434 87 79 99
-9.928998 4.775718 47.053009 86 78 99
-9.915359 4.870448 46.988369 87 79 100
-9.902286 4.965184 46.926418 87 80 100
-9.889736 5.059921 46.866947 86 82 101
-9.877656 5.154647 46.809704 88 84 103
-9.865980 5.249341 46.754372 89 87 104
-9.854638 5.343976 46.700619 91 89 106
-9.843554 5.438523 46.648094 93 90 106
-9.832659 5.532949 46.596458 93 90 106
-9.821884 5.627223 46.545403 92 88 105
-9.811175 5.721314 46.494652 92 86 104
-9.800488 5.815200 46.444004 93 86 104
-9.789788 5.908859 46.393299 94 87 103
-9.779058 6.002282 46.342453 95 88 102
-9.768294 6.095463 46.291439 94 87 99
-9.757500 6.188406 46.240288 90 85 94
-9.746694 6.281121 46.189079 87 81 89
-9.735900 6.373623 46.137924 85 79 85
-9.725150 6.465933 46.086983 84 77 83
-9.714479 6.558078 46.036415 82 77 81
-9.703930 6.650087 45.986420 82 76 80
-9.693544 6.741995 45.937202 81 76 79
-9.683371 6.833840 45.888992 80 75 78
-9.673461 6.925667 45.842030 79 74 77
-9.663869 7.017521 45.796574 79 72 77
-9.654655 7.109459 45.752914 79 72 78
-9.645886 7.201540 45.711357 80 71 79
-9.637634 7.293833 45.672249 78 70 80
-9.629974 7.386412 45.635952 76 69 80
-9.622989 7.479358 45.602844 76 69 82
-9.616759 7.572756 45.573322 76 69 84
-9.611365 7.666695 45.547760 76 70 85
-9.606884 7.761261 45.526527 75 70 86
-9.603384 7.856537 45.509941 75 70 86
-9.600920 7.952599 45.498260 75 70 86
-9.599529 8.049513 45.491673 75 71 86
-9.599232 8.147325 45.490261 76 72 86
-9.600021 8.246065 45.494003 77 73 87
-9.601875 8.345745 45.502789 78 74 88
-9.604738 8.446352 45.516357 79 74 90
-9.608538 8.547851 45.534363 79 74 91
-9.613176 8.650181 45.556343 79 74 92
-9.618539 8.753264 45.581757 79 73 92
-9.624491 8.857001 45.609966 79 72 92
-9.630890 8.961275 45.640289 77 70 89
-9.637582 9.065955 45.672001 75 68 86
-9.644407 9.170899 45.704350 75 67 85
-9.651208 9.275958 45.736572 75 67 84
-9.657825 9.380978 45.767929 76 67 83
-9.664104 9.485802 45.797688 75 67 82
-9.669899 9.590274 45.825153 74 66 81
-9.675076 9.694244 45.849682 73 65 79
-9.679511 9.797569 45.870701 71 63 77
-9.683092 9.900113 45.887672 70 62 76
-9.685724 10.001749 45.900146 69 62 75
-9.687331 10.102370 45.907761 68 62 74
-9.687853 10.201881 45.910233 66 62 74
-9.687250 10.300207 45.907375 66 62 73
-9.685513 10.397303 45.899143 65 61 72
-9.682652 10.493147 45.885590 64 61 71
-9.678712 10.587750 45.866917 64 61 71
-9.673763 10.681160 45.843464 62 61 71
-9.667914 10.773464 45.815742 62 61 70
-9.661303 10.864793 45.784416 61 61 70
-9.654100 10.955316 45.750282 60 61 70
-9.646506 11.045243 45.714294 59 60 69
-9.638749 11.134826 45.677532 59 59 68
-9.631074 11.224347 45.641163 59 58 68
-9.623751 11.314123 45.606453 61 58 68
-9.617052 11.404492 45.574711 62 59 67
-9.611256 11.495804 45.547245 63 58 66
-9.606634 11.588413 45.525341 63 58 66
-9.603442 11.682667 45.510212 63 59 66
-9.601913 11.778896 45.502972 62 58 65
-9.602253 11.877406 45.504581 62 57 65
-9.604626 11.978456 45.515823 62 56 65
-9.609155 12.082269 45.537289 62 54 64
-9.615918 12.189005 45.569340 61 53 63
-9.624940 12.298764 45.612091 60 52 63
-9.636190 12.411580 45.665405 59 51 62
-9.649588 12.527411 45.728893 58 51 61
-9.664994 12.646147 45.801910 56 50 60
-9.682226 12.767603 45.883568 55 49 59
-9.701048 12.891525 45.972767 55 48 58
-10.415261 0.868963 49.866798 78 58 67
-10.407917 0.975771 49.831638 78 58 68
-10.399862 1.082353 49.793076 78 58 68
-10.391043 1.188681 49.750847 78 58 69
-10.381414 1.294726 49.704746 78 57 69
-10.370956 1.400461 49.654678 78 57 69
-10.359665 1.505858 49.600613 79 56 68
-10.347552 1.610895 49.542622 79 56 68
-10.334649 1.715550 49.480843 80 56 68
-10.321005 1.819808 49.415516 80 57 68
-10.306677 1.923657 49.346916 80 58 70
-10.291737 2.027090 49.275383 80 60 71
-10.276257 2.130102 49.201267 80 62 73
-10.260314 2.232694 49.124935 79 63 72
-10.243980 2.334868 49.046734 77 61 70
-10.227324 2.436628 48.966988 73 57 66
-10.210402 2.537978 48.885971 69 52 62
-10.193265 2.638923 48.803917 66 49 60
-10.175949 2.739466 48.721008 66 49 61
-10.158481 2.839610 48.637371 66 49 63
-10.140876 2.939353 48.553085 67 50 64
-10.123144 3.038694 48.468185 68 52 66
-10.105287 3.137630 48.382687 70 55 68
-10.087305 3.236158 48.296593 73 58 69
-10.069201 3.334275 48.209911 75 61 71
-10.050981 3.431978 48.122677 77 63 71
-10.032660 3.529269 48.034962 80 65 72
-10.014263 3.626155 47.946880 82 65 73
-9.995825 3.722645 47.858601 83 66 75
-9.977394 3.818758 47.770359 84 66 77
-9.959029 3.914516 47.682426 84 66 79
-9.940799 4.009950 47.595142 84 66 81
-9.922779 4.105094 47.508865 87 70 87
-9.905048 4.199989 47.423973 93 78 96
-9.887688 4.294678 47.340855 96 82 101
-9.870773 4.389208 47.259869 95 83 102
-9.854370 4.483621 47.181332 93 82 102
-9.838534 4.577960 47.105515 91 81 101
-9.823304 4.672259 47.032597 89 79 100
-9.808702 4.766550 46.962681 88 78 100
-9.794728 4.860851 46.895775 88 79 101
-9.781369 4.955175 46.831818 88 81 102
-9.768592 5.049523 46.770641 87 82 103
-9.756345 5.143888 46.712006 89 84 104
-9.744570 5.238254 46.655624 91 87 106
-9.733196 5.332596 46.601170 92 89 107
-9.722150 5.426887 46.548283 94 90 107
-9.711362 5.521096 46.496632 94 89 106
-9.700760 5.615191 46.445873 94 88 106
-9.690287 5.709141 46.395725 94 87 106
-9.679891 5.802922 46.345947 94 87 105
-9.669534 5.896513 46.296364 95 88 104
-9.659193 5.989900 46.246857 96 89 104
-9.648857 6.083076 46.197369 94 88 102
-9.638525 6.176042 46.147900 91 86 96
-9.628207 6.268804 46.098499 87 83 91
-9.617923 6.361374 46.049259 85 80 87
-9.607698 6.453773 46.000305 84 78 84
-9.597566 6.546022 45.951790 82 78 82
-9.587558 6.638150 45.903877 81 77 80
-9.577716 6.730188 45.856754 80 76 79
-9.568083 6.822171 45.810631 79 75 78
-9.558703 6.914139 45.765724 79 74 77
-9.549628 7.006136 45.722271 79 73 77
-9.540912 7.098213 45.680538 79 72 77
-9.532613 7.190425 45.640808 78 71 77
-9.524798 7.282836 45.603394 76 70 78
-9.517540 7.375517 45.568638 75 69 78
-9.510910 7.468542 45.536896 75 69 80
-9.504986 7.561990 45.508533 76 70 83
-9.499843 7.655946 45.483906 75 70 85
-9.495552 7.750493 45.463364 75 70 86
-9.492180 7.845709 45.447220 76 71 87
-9.489779 7.941668 45.435719 76 71 88
-9.488386 8.038432 45.429054 77 73 88
-9.488023 8.136050 45.427315 78 74 89
-9.488688 8.234554 45.430500 80 76 90
-9.490359 8.333955 45.438503 81 76 91
-9.492993 8.434245 45.451115 81 77 92
-9.496522 8.535393 45.468006 81 76 93
-9.500854 8.637346 45.488750 81 76 93
-9.505886 8.740030 45.512840 81 75 93
-9.511493 8.843353 45.539684 81 74 93
-9.517538 8.947206 45.568630 80 72 91
-9.523877 9.051460 45.598980 79 70 88
-9.530360 9.155985 45.630024 78 69 87
-9.536834 9.260634 45.661018 78 69 86
-9.543145 9.365257 45.691235 78 68 86
-9.549145 9.469702 45.719959 78 68 84
-9.554691 9.573816 45.746513 77 68 83
-9.559649 9.677450 45.770252 76 67 83
-9.563901 9.780462 45.790607 75 66 82
-9.567332 9.882716 45.807037 73 65 81
-9.569850 9.984088 45.819092 72 65 80
-9.571378 10.084467 45.826405 71 64 79
-9.571854 10.183761 45.828686 69 64 79
-9.571243 10.281896 45.825760 68 64 78
-9.569534 10.378827 45.817581 67 63 77
-9.566741 10.474536 45.804207 66 63 76
-9.562906 10.569036 45.785847 65 64 76
-9.558105 10.662378 45.762856 65 64 76
-9.552444 10.754656 45.735756 64 64 76
-9.546065 10.845999 45.705215 63 64 75
-9.539139 10.936583 45.672050 63 64 75
-9.531865 11.026622 45.637226 62 63 74
-9.524468 11.116367 45.601810 62 62 73
-9.517195 11.206105 45.566986 62 61 73
-9.510306 11.296150 45.534008 62 62 72
-9.504073 11.386839 45.504166 63 62 71
-9.498765 11.478516 45.478748 63 61 71
-9.494643 11.571529 45.459015 63 61 71
-9.491955 11.666219 45.446140 63 61 71
-9.490923 11.762906 45.441200 64 61 71
-9.491740 11.861884 45.445114 64 60 70
-9.494560 11.963401 45.458614 64 59 69
-9.499498 12.067669 45.482262 64 57 69
-9.506620 12.174833 45.516357 63 56 68
-9.515944 12.284988 45.561001 62 55 67
-9.527434 12.398155 45.616013 61 53 66
-9.541005 12.514287 45.680984 60 53 65
-9.556520 12.633270 45.755272 59 52 63
-9.573796 12.754920 45.837986 57 51 62
-9.592606 12.878984 45.928043 57 51 61
-9.612679 13.005148 46.024155 57 51 60
-9.633718 13.133042 46.124889 57 50 60
-10.310759 0.654161 49.881283 78 59 68
-10.304513 0.761227 49.851070 79 60 69
-10.297701 0.868115 49.818115 79 60 69
-10.290255 0.974801 49.782089 79 60 69
-10.282116 1.081258 49.742714 78 59 70
-10.273235 1.187460 49.699753 78 59 70
-10.263576 1.293379 49.653019 79 58 71
-10.253115 1.398987 49.602413 79 58 72
-10.241852 1.504259 49.547928 80 58 73
-10.229800 1.609171 49.489620 81 58 73
-10.216990 1.713706 49.427647 82 59 73
-10.203465 1.817845 49.362221 83 60 74
-10.189285 1.921579 49.293617 84 61 75
-10.174513 2.024900 49.222157 84 63 76
-10.159220 2.127803 49.148170 84 65 78
-10.143475 2.230288 49.071999 84 66 78
-10.127347 2.332357 48.993973 81 64 75
-10.110897 2.434011 48.914394 76 59 71
-10.094177 2.535255 48.833511 71 54 66
-10.077233 2.636091 48.751537 69 50 64
-10.060095 2.736521 48.668625 69 49 63
-10.042784 2.836545 48.584877 69 50 65
-10.025311 2.936160 48.500351 70 51 66
-10.007682 3.035363 48.415062 71 53 68
-9.989893 3.134149 48.329002 73 55 69
-9.971942 3.232511 48.242161 75 58 71
-9.953827 3.330444 48.154526 77 61 72
-9.935555 3.427944 48.066124 79 63 72
-9.917134 3.525011 47.977009 81 65 73
-9.898590 3.621649 47.887299 83 66 73
-9.879957 3.717866 47.797157 84 67 75
-9.861285 3.813680 47.706829 85 67 77
-9.842635 3.909112 47.616604 85 66 79
-9.824080 4.004195 47.526840 84 66 81
-9.805701 4.098964 47.437923 87 70 87
-9.787582 4.193461 47.350269 93 77 95
-9.769814 4.287734 47.264305 96 82 101
-9.752480 4.381832 47.180443 96 83 102
-9.735655 4.475802 47.099052 94 82 102
-9.719406 4.569692 47.020443 92 81 102
-9.703781 4.663543 46.944855 90 80 102
-9.688814 4.757391 46.872444 89 79 102
-9.674515 4.851262 46.803272 89 80 102
-9.660877 4.945174 46.737297 88 81 102
-9.647878 5.039134 46.674404 88 83 103
-9.635469 5.133137 46.614372 89 85 105
-9.623597 5.227174 46.556942 91 88 106
-9.612196 5.321223 46.501781 94 89 106
-9.601192 5.415259 46.448547 94 89 107
-9.590511 5.509251 46.396877 95 89 106
-9.580085 5.603168 46.346436 95 88 107
-9.569847 5.696982 46.296909 95 88 107
-9.559746 5.790664 46.248043 96 88 106
-9.549736 5.884191 46.199615 97 89 106
-9.539788 5.977549 46.151489 97 89 106
-9.529884 6.070726 46.103577 95 89 104
-9.520018 6.163722 46.055843 92 86 99
-9.510193 6.256539 46.008312 88 84 94
-9.500422 6.349188 45.961044 86 81 90
-9.490727 6.441685 45.914146 84 79 87
-9.481133 6.534049 45.867733 82 78 84
-9.471672 6.626304 45.821957 80 77 82
-9.462376 6.718481 45.776985 79 76 81
-9.453283 6.810609 45.732998 79 75 80
-9.444434 6.902727 45.690186 79 74 80
-9.435874 6.994874 45.648773 79 73 79
-9.427651 7.087096 45.608994 78 71 77
-9.419820 7.179444 45.571106 77 70 76
-9.412438 7.271978 45.535400 76 70 76
-9.405574 7.364762 45.502190 75 69 77
-9.399292 7.457865 45.471802 75 69 80
-9.393666 7.551364 45.444584 75 70 83
-9.388763 7.645335 45.420860 76 71 86
-9.384654 7.739858 45.400982 77 71 88
-9.381397 7.835008 45.385231 77 72 89
-9.379048 7.930856 45.373863 78 73 91
-9.377642 8.027463 45.367058 79 75 91
-9.377200 8.124876 45.364922 80 77 92
-9.377727 8.223129 45.367470 82 78 93
-9.379203 8.322236 45.374611 82 78 93
-9.381591 8.422193 45.386166 82 78 94
-9.384830 8.522972 45.401840 83 78 94
-9.388841 8.624527 45.421238 83 77 93
-9.393526 8.726792 45.443905 83 76 93
-9.398769 8.829680 45.469273 82 75 93
-9.404446 8.933088 45.496731 82 73 92
-9.410419 9.036900 45.525627 81 71 91
-9.416545 9.140985 45.555264 81 70 90
-9.422680 9.245206 45.584942 81 69 89
-9.428676 9.349417 45.613953 81 69 88
-9.434391 9.453472 45.641602 80 69 88
-9.439687 9.557221 45.667221 80 69 87
-9.444430 9.660517 45.690170 79 68 86
-9.448506 9.763222 45.709888 78 68 85
-9.451804 9.865199 45.725842 76 67 84
-9.454231 9.966327 45.737583 75 66 84
-9.455710 10.066496 45.744740 73 66 84
-9.456183 10.165615 45.747028 72 65 83
-9.455613 10.263611 45.744270 71 65 82
-9.453990 10.360441 45.736416 69 65 82
-9.451329 10.456090 45.723545 68 66 81
-9.447674 10.550572 45.705860 67 66 81
-9.443100 10.643944 45.683731 66 67 81
-9.437716 10.736299 45.657692 66 68 81
-9.431664 10.827771 45.628407 66 67 80
-9.425111 10.918541 45.596706 65 66 80
-9.418258 11.008821 45.563553 65 66 79
-9.411325 11.098865 45.530014 65 66 78
-9.404556 11.188958 45.497265 65 65 77
-9.398206 11.279414 45.466545 65 65 77
-9.392537 11.370562 45.439117 65 65 76
-9.387810 11.462742 45.416252 65 65 76
-9.384277 11.556293 45.399162 65 65 76
-9.382174 11.651548 45.388988 65 64 76
-9.381713 11.748813 45.386753 65 64 75
-9.383072 11.848368 45.393333 65 63 75
-9.386395 11.950452 45.409409 66 62 74
-9.391786 12.055258 45.435486 65 60 73
-9.399301 12.162926 45.471840 64 59 72
-9.408948 12.273533 45.518513 63 57 70
-9.420688 12.387092 45.575310 63 56 69
-9.434431 12.503550 45.641792 62 54 68
-9.450040 12.622788 45.717308 61 53 67
-9.467337 12.744624 45.800987 59 53 65
-9.486096 12.868805 45.891743 59 53 64
-9.506063 12.995027 45.988335 59 53 63
-9.526946 13.122927 46.089359 59 53 63
-9.548434 13.252104 46.193321 59 53 62
-9.570204 13.382121 46.298634 59 52 62
-10.204727 0.439171 49.888599 75 59 68
-10.199287 0.546423 49.862000 78 60 70
-10.193417 0.653532 49.833302 80 61 71
-10.187056 0.760481 49.802204 82 62 72
-10.180139 0.867248 49.768387 81 62 72
-10.172604 0.973811 49.731552 80 62 71
-10.164398 1.080143 49.691437 79 61 72
-10.155478 1.186219 49.647827 79 60 73
-10.145805 1.292012 49.600540 79 60 74
-10.135366 1.397494 49.549507 80 60 76
-10.124155 1.502643 49.494698 82 61 77
-10.112186 1.607434 49.436188 83 61 78
-10.099489 1.711849 49.374111 85 62 79
-10.086105 1.815874 49.308678 86 63 80
-10.072088 1.919495 49.240150 87 64 81
-10.057497 2.022706 49.168823 87 65 81
-10.042401 2.125502 49.095020 87 66 82
-10.026862 2.227882 49.019054 87 66 82
-10.010945 2.329846 48.941238 84 64 79
-9.994704 2.431396 48.861843 80 60 75
-9.978189 2.532534 48.781105 75 56 70
-9.961438 2.633262 48.699207 73 52 68
-9.944476 2.733578 48.616287 71 51 66
-9.927321 2.833482 48.532425 72 51 67
-9.909982 2.932970 48.447655 73 52 68
-9.892455 3.032035 48.361969 74 54 69
-9.874737 3.130670 48.275349 75 56 70
-9.856821 3.228866 48.187759 77 58 71
-9.838702 3.326617 48.099186 79 61 73
-9.820383 3.423915 48.009628 80 64 73
-9.801873 3.520759 47.919136 82 65 74
-9.783195 3.617151 47.827820 84 67 75
-9.764384 3.713098 47.735859 86 68 77
-9.745489 3.808616 47.643486 87 68 79
-9.726574 3.903728 47.551010 87 67 80
-9.707716 3.998464 47.458820 86 67 82
-9.688998 4.092863 47.367313 88 70 87
-9.670515 4.186968 47.276951 94 76 94
-9.652360 4.280830 47.188198 96 80 100
-9.634627 4.374500 47.101509 96 82 102
-9.617403 4.468033 47.017303 95 82 102
-9.600761 4.561480 46.935944 93 82 102
-9.584762 4.654888 46.857723 91 81 102
-9.569447 4.748298 46.782852 89 80 102
-9.554836 4.841743 46.711426 89 81 102
-9.540934 4.935245 46.643459 88 82 102
-9.527719 5.028818 46.578857 88 84 103
-9.515157 5.122464 46.517445 89 87 104
-9.503195 5.216174 46.458961 91 88 105
-9.491768 5.309931 46.403099 93 89 106
-9.480804 5.403712 46.349503 94 89 106
-9.470235 5.497489 46.297829 95 89 106
-9.459981 5.591232 46.247700 96 89 107
-9.449979 5.684909 46.198803 96 88 107
-9.440168 5.778493 46.150845 96 89 107
-9.430502 5.871960 46.103584 97 89 106
-9.420942 5.965291 46.056850 96 90 106
-9.411467 6.058474 46.010525 94 89 103
-9.402061 6.151504 45.964546 91 86 99
-9.392726 6.244381 45.918907 87 84 95
-9.383467 6.337114 45.873642 84 82 91
-9.374298 6.429713 45.828819 82 80 88
-9.365242 6.522198 45.784542 80 78 86
-9.356322 6.614588 45.740936 79 77 84
-9.347568 6.706908 45.698135 79 76 83
-9.339010 6.799188 45.656303 79 75 81
-9.330687 6.891460 45.615612 78 74 80
-9.322636 6.983761 45.576252 78 72 79
-9.314900 7.076132 45.538437 77 71 77
-9.307528 7.168620 45.502396 76 70 76
-9.300574 7.261278 45.468395 76 70 76
-9.294095 7.354166 45.436722 75 69 78
-9.288153 7.447347 45.407673 74 70 81
-9.282814 7.540894 45.381573 75 71 84
-9.278143 7.634878 45.358738 77 72 87
-9.274204 7.729373 45.339478 78 73 90
-9.271055 7.824452 45.324085 79 74 92
-9.268745 7.920182 45.312794 80 75 93
-9.267314 8.016623 45.305798 81 77 94
-9.266784 8.113822 45.303204 82 78 94
-9.267159 8.211813 45.305038 83 79 94
-9.268429 8.310615 45.311245 83 80 94
-9.270559 8.410223 45.321659 83 79 94
-9.273499 8.510618 45.336029 84 79 94
-9.277174 8.611760 45.354000 84 78 93
-9.281499 8.713588 45.375141 84 76 93
-9.286366 8.816022 45.398937 83 75 92
-9.291660 8.918968 45.424820 83 74 92
-9.297254 9.022317 45.452164 82 72 92
-9.303013 9.125946 45.480316 82 71 92
-9.308799 9.229723 45.508602 82 70 91
-9.314473 9.333510 45.536346 81 70 91
-9.319900 9.437166 45.562874 81 70 90
-9.324943 9.540544 45.587528 81 70 89
-9.329476 9.643501 45.609692 81 69 88
-9.333387 9.745904 45.628811 80 69 88
-9.336566 9.847618 45.644352 79 69 88
-9.338923 9.948523 45.655876 78 68 87
-9.340384 10.048512 45.663013 76 67 86
-9.340887 10.147493 45.665478 74 67 86
-9.340401 10.245399 45.663101 72 67 85
-9.338915 10.342188 45.655834 71 67 86
-9.336445 10.437844 45.643757 70 68 86
-9.333035 10.532390 45.627090 69 69 86
-9.328761 10.625878 45.606197 69 70 85
-9.323733 10.718410 45.581615 69 70 86
-9.318089 10.810120 45.554020 68 70 85
-9.311995 10.901186 45.524231 69 69 84
-9.305651 10.991826 45.493214 68 69 84
-9.299271 11.082292 45.462025 68 68 83
-9.293093 11.172865 45.431824 67 68 82
-9.287367 11.263856 45.403831 68 68 81
-9.282345 11.355587 45.379276 67 67 81
-9.278277 11.448391 45.359394 67 67 81
-9.275406 11.542597 45.345352 67 67 81
-9.273953 11.638524 45.338253 67 67 81
-9.274118 11.736466 45.339062 67 66 80
-9.276069 11.836691 45.348595 67 65 79
-9.279935 11.939422 45.367496 67 64 78
-9.285808 12.044837 45.396210 67 62 77
-9.293736 12.153062 45.434963 66 61 76
-9.303717 12.264162 45.483761 65 59 74
-9.315707 12.378141 45.542377 64 57 72
-9.329614 12.494940 45.610363 63 56 71
-9.345300 12.614433 45.687050 62 55 70
-9.362589 12.736439 45.771572 61 55 67
-9.381263 12.860706 45.862862 60 55 67
-9.401074 12.986941 45.959721 61 54 66
-9.421747 13.114790 46.060783 61 54 65
-9.442986 13.243869 46.164612 61 54 64
-9.464478 13.373755 46.269688 61 54 64
-9.485913 13.504011 46.374477 60 54 64
-9.506980 13.634192 46.477470 60 54 64
-10.097616 0.224095 49.890732 73 60 67
-10.092758 0.331483 49.866730 74 60 69
-10.087572 0.438753 49.841103 77 61 71
-10.082011 0.545893 49.813629 79 63 74
-10.076024 0.652886 49.784050 81 64 75
-10.069555 0.759716 49.752087 82 65 76
-10.062545 0.866361 49.717449 81 65 76
-10.054937 0.972799 49.679863 80 64 75
-10.046684 1.079005 49.639088 79 62 75
-10.037745 1.184955 49.594917 79 61 75
-10.028085 1.290622 49.547184 79 62 77
-10.017688 1.395980 49.495815 81 63 80
-10.006552 1.501006 49.440796 84 65 82
-9.994688 1.605678 49.382179 85 65 84
-9.982122 1.709977 49.320095 86 65 85
-9.968895 1.813887 49.254742 87 65 85
-9.955057 1.917399 49.186367 89 66 86
-9.940662 2.020502 49.115246 89 67 86
-9.925772 2.123193 49.041676 89 67 85
-9.910447 2.225469 48.965958 89 66 84
-9.894744 2.327329 48.888371 86 64 82
-9.878716 2.428776 48.809181 84 62 79
-9.862407 2.529808 48.728596 81 59 76
-9.845847 2.630427 48.646782 77 56 72
-9.829062 2.730630 48.563850 74 53 69
-9.812066 2.830414 48.479870 74 52 69
-9.794858 2.929773 48.394852 76 53 70
-9.777438 3.028700 48.308781 77 55 71
-9.759794 3.127184 48.221603 78 57 72
-9.741920 3.225217 48.133297 79 59 72
-9.723807 3.322786 48.043800 80 61 73
-9.705457 3.419886 47.953129 81 64 74
-9.686873 3.516511 47.861317 83 66 75
-9.668080 3.612661 47.768463 84 67 77
-9.649112 3.708344 47.674744 86 69 79
-9.630020 3.803574 47.580414 88 70 80
-9.610867 3.898372 47.485779 88 68 82
-9.591734 3.992771 47.391247 87 68 83
-9.572710 4.086809 47.297253 89 70 87
-9.553892 4.180532 47.204277 93 75 94
-9.535384 4.273993 47.112831 96 80 99
-9.517286 4.367247 47.023411 96 83 102
-9.499692 4.460353 46.936481 95 84 103
-9.482686 4.553366 46.852459 94 83 103
-9.466338 4.646340 46.771683 92 83 103
-9.450699 4.739322 46.694412 90 82 102
-9.435799 4.832348 46.620792 89 82 102
-9.421648 4.925449 46.550877 88 83 102
-9.408235 5.018642 46.484608 88 85 103
-9.395529 5.111934 46.421825 89 87 103
-9.383481 5.205321 46.362301 91 88 104
-9.372033 5.298790 46.305740 92 89 105
-9.361114 5.392319 46.251785 93 89 105
-9.350649 5.485883 46.200081 94 89 106
-9.340565 5.579451 46.150257 95 89 106
-9.330790 5.672992 46.101959 96 89 107
-9.321262 5.766479 46.054886 97 89 107
-9.311929 5.859884 46.008774 97 89 106
-9.302748 5.953189 45.963413 97 89 106
-9.293691 6.046378 45.918659 95 88 103
-9.284738 6.139442 45.874424 92 86 100
-9.275881 6.232382 45.830666 88 83 97
-9.267122 6.325199 45.787392 84 80 93
-9.258471 6.417904 45.744644 82 78 90
-9.249940 6.510510 45.702496 80 77 88
-9.241552 6.603036 45.661057 79 76 86
-9.233330 6.695503 45.620426 79 75 84
-9.225300 6.787937 45.580753 79 75 82
-9.217492 6.880366 45.542175 78 73 81
-9.209940 6.972822 45.504864 78 72 79
-9.202682 7.065342 45.469002 77 70 77
-9.195760 7.157970 45.434799 76 70 76
-9.189220 7.250752 45.402489 75 69 77
-9.183116 7.343743 45.372330 75 69 78
-9.177505 7.437003 45.344601 74 70 82
-9.172443 7.530596 45.319595 75 71 85
-9.167993 7.624588 45.297607 77 72 88
-9.164215 7.719052 45.278942 78 74 91
-9.161162 7.814055 45.263863 80 76 94
-9.158885 7.909662 45.252605 82 78 96
-9.157419 8.005930 45.245365 83 80 97
-9.156791 8.102907 45.242260 84 81 97
-9.157006 8.200627 45.243324 84 81 96
-9.158060 8.299111 45.248531 84 81 95
-9.159925 8.398361 45.257744 83 81 94
-9.162555 8.498362 45.270737 84 80 93
-9.165886 8.599075 45.287201 84 78 93
-9.169842 8.700453 45.306744 84 77 93
-9.174323 8.802419 45.328888 84 76 93
-9.179226 8.904888 45.353107 84 75 94
-9.184430 9.007759 45.378822 83 74 93
-9.189814 9.110917 45.405422 82 72 93
-9.195244 9.214238 45.432251 82 71 93
-9.200592 9.317590 45.458675 82 71 92
-9.205726 9.420837 45.484039 82 71 91
-9.210517 9.523840 45.507713 82 71 90
-9.214846 9.626462 45.529102 81 71 90
-9.218598 9.728567 45.547642 81 71 89
-9.221673 9.830030 45.562836 80 72 90
-9.223979 9.930731 45.574226 79 71 90
-9.225444 10.030566 45.581467 78 70 89
-9.226011 10.129448 45.584267 76 69 89
-9.225647 10.227308 45.582470 74 69 89
-9.224343 10.324109 45.576027 73 69 89
-9.222115 10.419838 45.565014 72 70 90
-9.219007 10.514516 45.549660 71 71 90
-9.215096 10.608203 45.530334 71 72 89
-9.210488 10.700998 45.507568 71 72 90
-9.205320 10.793038 45.482040 71 71 89
-9.199759 10.884502 45.454563 72 71 88
-9.193996 10.975608 45.426086 71 70 88
-9.188243 11.066602 45.397663 70 70 87
-9.182729 11.157763 45.370419 70 70 86
-9.177695 11.249396 45.345543 70 70 86
-9.173384 11.341816 45.324245 70 69 85
-9.170035 11.435344 45.307701 69 69 85
-9.167878 11.530299 45.297043 69 69 84
-9.167124 11.626987 45.293316 69 68 84
-9.167956 11.725689 45.297428 68 67 83
-9.170529 11.826653 45.310139 68 66 82
-9.174962 11.930091 45.332043 68 66 81
-9.181335 12.036166 45.363529 68 64 80
-9.189682 12.144986 45.404774 68 62 78
-9.199999 12.256607 45.455742 67 61 77
-9.212232 12.371022 45.516186 65 59 75
-9.226286 12.488162 45.585621 64 58 73
-9.242024 12.607901 45.663387 63 57 72
-9.259274 12.730052 45.748619 63 57 70
-9.277826 12.854373 45.840275 62 57 69
-9.297441 12.980574 45.937187 62 56 67
-9.317853 13.108315 46.038044 62 56 67
-9.338784 13.237226 46.141460 63 56 66
-9.359941 13.366906 46.245995 63 56 66
-9.381028 13.496935 46.350182 62 55 66
-9.401752 13.626889 46.452579 62 55 66
-9.421838 13.756351 46.551815 62 55 67
-9.441024 13.884918 46.646614 63 55 68
-9.989663 0.008999 49.888706 75 62 65
-9.985271 0.116491 49.866776 74 61 66
-9.980601 0.223882 49.843449 75 62 70
-9.975629 0.331163 49.818619 77 62 72
-9.970323 0.438322 49.792118 79 64 75
-9.964643 0.545346 49.763752 81 66 77
-9.958544 0.652220 49.733295 81 67 78
-9.951976 0.758928 49.700497 81 67 79
-9.944887 0.865448 49.665092 80 66 78
-9.937225 0.971760 49.626831 79 65 78
-9.928945 1.077840 49.585476 78 64 78
-9.920008 1.183663 49.540840 78 63 78
-9.910381 1.289204 49.492767 78 63 79
-9.900050 1.394439 49.441177 82 66 84
-9.889010 1.499344 49.386040 85 68 88
-9.877272 1.603897 49.327419 87 68 89
-9.864858 1.708081 49.265423 88 68 90
-9.851805 1.811880 49.200233 89 67 89
-9.838158 1.915282 49.132084 90 68 89
-9.823968 2.018280 49.061218 90 68 88
-9.809293 2.120866 48.987930 90 67 87
-9.794187 2.223039 48.912491 90 66 86
-9.778703 2.324796 48.835163 88 65 84
-9.762889 2.426139 48.756187 87 64 83
-9.746785 2.527065 48.675766 86 63 81
-9.730419 2.627574 48.594032 81 59 76
-9.713812 2.727663 48.511093 76 54 72
-9.696972 2.827327 48.426994 76 54 72
-9.679901 2.926558 48.341743 78 55 73
-9.662591 3.025347 48.255299 79 56 73
-9.645032 3.123682 48.167603 79 58 74
-9.627211 3.221552 48.078606 79 59 73
-9.609118 3.318944 47.988251 80 62 73
-9.590751 3.415849 47.896526 81 64 74
-9.572118 3.512261 47.803467 83 66 75
-9.553235 3.608177 47.709167 84 67 77
-9.534139 3.703604 47.613800 86 69 79
-9.514881 3.798555 47.517628 88 70 81
-9.495525 3.893051 47.420963 88 69 83
-9.476155 3.987125 47.324230 87 68 84
-9.456863 4.080815 47.227886 88 70 88
-9.437754 4.174171 47.132454 92 75 94
-9.418932 4.267246 47.038456 95 79 99
-9.400509 4.360099 46.946449 96 83 102
-9.382585 4.452794 46.856934 96 85 103
-9.365252 4.545389 46.770374 94 85 103
-9.348589 4.637944 46.687160 92 84 102
-9.332658 4.730510 46.607597 89 83 101
-9.317494 4.823131 46.531872 88 83 101
-9.303117 4.915841 46.460072 87 84 101
-9.289523 5.008664 46.392185 87 86 102
-9.276687 5.101611 46.328075 89 87 103
-9.264564 5.194681 46.267536 90 88 104
-9.253098 5.287866 46.210270 91 89 105
-9.242220 5.381146 46.155949 92 90 105
-9.231857 5.474497 46.104195 93 90 105
-9.221932 5.567891 46.054634 94 89 105
-9.212376 5.661296 46.006908 95 89 105
-9.203118 5.754683 45.960678 97 89 106
-9.194105 5.848025 45.915661 97 89 106
-9.185287 5.941300 45.871624 97 89 105
-9.176632 6.034492 45.828400 95 87 103
-9.168113 6.127590 45.785858 91 85 100
-9.159719 6.220588 45.743938 87 82 97
-9.151443 6.313487 45.702610 83 79 93
-9.143291 6.406295 45.661900 81 77 91
-9.135273 6.499022 45.621853 80 75 89
-9.127402 6.591683 45.582546 79 74 87
-9.119696 6.684295 45.544060 79 73 85
-9.112178 6.776881 45.506516 79 73 82
-9.104871 6.869465 45.470024 78 72 81
-9.097805 6.962076 45.434734 78 70 79
-9.091011 7.054746 45.400806 77 69 77
-9.084524 7.147511 45.368412 76 69 76
-9.078388 7.240416 45.337769 75 69 77
-9.072647 7.333509 45.309097 74 69 79
-9.067353 7.426844 45.282658 74 70 82
-9.062559 7.520479 45.258717 75 72 85
-9.058320 7.614479 45.237549 75 72 88
-9.054692 7.708907 45.219433 77 74 92
-9.051729 7.803830 45.204632 82 79 97
-9.049475 7.899309 45.193375 84 82 99
-9.047969 7.995399 45.185852 85 83 99
-9.047235 8.092148 45.182182 85 83 98
-9.047284 8.189590 45.182434 85 82 96
-9.048117 8.287751 45.186592 84 82 95
-9.049708 8.386634 45.194542 84 81 94
-9.052023 8.486228 45.206100 85 80 93
-9.055006 8.586505 45.220997 85 79 93
-9.058585 8.687419 45.238869 84 78 93
-9.062675 8.788906 45.259300 84 77 95
-9.067180 8.890886 45.281796 84 76 96
-9.071991 8.993268 45.305820 83 75 96
-9.076993 9.095944 45.330799 83 74 96
-9.082065 9.198799 45.356129 83 73 96
-9.087081 9.301706 45.381184 83 73 95
-9.091922 9.404540 45.405357 83 74 94
-9.096463 9.507165 45.428036 83 74 93
-9.100590 9.609449 45.448643 83 74 92
-9.104193 9.711266 45.466637 82 74 91
-9.107174 9.812488 45.481525 82 74 91
-9.109446 9.913003 45.492870 80 73 91
-9.110937 10.012710 45.500320 79 72 90
-9.111594 10.111523 45.503601 78 71 90
-9.111384 10.209378 45.502556 76 71 90
-9.110299 10.306238 45.497131 75 71 90
-9.108355 10.402094 45.487423 74 72 91
-9.105597 10.496970 45.473652 73 73 92
-9.102098 10.590926 45.456181 73 73 92
-9.097967 10.684062 45.435547 73 73 92
-9.093334 10.776515 45.412411 74 73 92
-9.088364 10.868464 45.387585 75 72 92
-9.083239 10.960122 45.361992 74 72 91
-9.078168 11.051733 45.336670 74 71 90
-9.073371 11.143573 45.312714 73 71 89
-9.069080 11.235936 45.291286 73 71 89
-9.065527 11.329127 45.273540 72 71 88
-9.062940 11.423461 45.260620 72 71 87
-9.061533 11.519239 45.253590 71 70 87
-9.061504 11.616755 45.253452 71 69 87
-9.063026 11.716273 45.261051 70 68 86
-9.066240 11.818029 45.277100 70 67 85
-9.071249 11.922215 45.302113 69 67 83
-9.078122 12.028978 45.336441 69 65 82
-9.086886 12.138415 45.380207 68 63 80
-9.097527 12.250568 45.433346 67 62 78
-9.109985 12.365418 45.495567 66 61 77
-9.124166 12.482891 45.566380 65 59 75
-9.139931 12.602856 45.645115 65 59 73
-9.157111 12.725126 45.730915 65 58 72
-9.175504 12.849463 45.822765 65 58 71
-9.194880 12.975584 45.919529 64 58 69
-9.214988 13.103164 46.019951 64 58 68
-9.235563 13.231846 46.122704 65 58 68
-9.256330 13.361247 46.226414 65 58 68
-9.277013 13.490973 46.329704 65 57 69
-9.297337 13.620620 46.431206 65 57 69
-9.317045 13.749794 46.529629 65 57 70
-9.335893 13.878115 46.623756 67 58 71
-9.353665 14.005230 46.712513 66 58 71
-9.370180 14.130832 46.794987 65 55 69
-9.880889 -0.206062 49.882488 78 63 65
-9.876961 -0.098493 49.862659 77 63 65
-9.872748 0.008991 49.841396 77 62 67
-9.868251 0.116379 49.818691 76 62 69
-9.863461 0.223663 49.794514 77 63 72
-9.858364 0.330832 49.768780 79 64 75
-9.852934 0.437875 49.741364 80 66 77
-9.847137 0.544780 49.712101 81 67 79
-9.840936 0.651532 49.680790 81 68 80
-9.834282 0.758114 49.647202 81 69 81
-9.827129 0.864507 49.611095 80 68 81
-9.819432 0.970691 49.572235 79 68 80
-9.811146 1.076643 49.530399 77 67 79
-9.802233 1.182339 49.485401 77 65 80
-9.792663 1.287754 49.437092 78 65 82
-9.782419 1.392865 49.385380 81 67 86
-9.771497 1.497650 49.330238 85 69 91
-9.759902 1.602086 49.271706 87 69 92
-9.747656 1.706155 49.209881 88 69 92
-9.734790 1.809843 49.144928 89 69 92
-9.721347 1.913138 49.077065 89 69 90
-9.707372 2.016029 49.006512 90 68 89
-9.692919 2.118511 48.933544 90 67 87
-9.678036 2.220581 48.858414 90 66 86
-9.662773 2.322235 48.781361 90 66 85
-9.647176 2.423473 48.702618 90 66 85
-9.631277 2.524292 48.622356 90 66 85
-9.615105 2.624691 48.540710 86 62 81
-9.598676 2.724665 48.457771 81 58 77
-9.581997 2.824208 48.373569 79 56 75
-9.565066 2.923311 48.288097 80 56 75
-9.547874 3.021962 48.201305 80 58 76
-9.530408 3.120150 48.113129 80 59 75
-9.512653 3.217859 48.023495 80 60 75
-9.494598 3.315078 47.932350 80 63 75
-9.476239 3.411794 47.839664 81 65 76
-9.457580 3.507999 47.745464 83 66 77
-9.438640 3.603691 47.649845 84 67 79
-9.419451 3.698872 47.552975 86 68 80
-9.400065 3.793557 47.455109 87 68 82
-9.380549 3.887766 47.356586 87 68 84
-9.360988 3.981531 47.257832 87 68 86
-9.341475 4.074891 47.159325 88 70 89
-9.322121 4.167898 47.061619 92 75 94
-9.303036 4.260606 46.965267 95 79 98
-9.284334 4.353079 46.870853 96 83 101
-9.266127 4.445382 46.778938 95 85 102
-9.248512 4.537579 46.690010 93 85 101
-9.231576 4.629734 46.604511 91 85 101
-9.215388 4.721903 46.522793 88 85 100
-9.199994 4.814135 46.445072 86 85 100
-9.185419 4.906469 46.371494 86 85 100
-9.171666 4.998934 46.302063 87 87 102
-9.158714 5.091546 46.236679 89 88 103
-9.146526 5.184308 46.175148 91 89 104
-9.135047 5.277215 46.117195 92 90 105
-9.124210 5.370250 46.062489 92 90 105
-9.113943 5.463390 46.010658 93 90 105
-9.104171 5.556610 45.961323 93 89 104
-9.094817 5.649876 45.914101 94 89 105
-9.085814 5.743160 45.868649 96 90 106
-9.077101 5.836435 45.824661 97 90 106
-9.068625 5.929676 45.781876 96 89 105
-9.060349 6.022865 45.740097 93 88 102
-9.052243 6.115988 45.699173 89 85 99
-9.044289 6.209039 45.659016 85 81 95
-9.036475 6.302015 45.619568 82 78 92
-9.028802 6.394921 45.580830 80 76 90
-9.021273 6.487764 45.542824 79 74 87
-9.013898 6.580554 45.505589 79 73 85
-9.006689 6.673308 45.469196 79 72 83
-8.999663 6.766042 45.433731 79 71 81
-8.992841 6.858778 45.399284 78 70 79
-8.986242 6.951540 45.365974 77 69 78
-8.979896 7.044355 45.333935 77 67 76
-8.973830 7.137255 45.303310 76 67 76
-8.968081 7.230279 45.274292 75 67 77
-8.962690 7.323470 45.247074 75 68 79
-8.957702 7.416877 45.221889 75 70 83
-8.953162 7.510552 45.198975 76 73 86
-8.949124 7.604555 45.178589 76 73 88
-8.945639 7.698945 45.160992 78 77 93
-8.942755 7.793784 45.146435 84 83 99
-8.940518 7.889130 45.135139 87 85 102
-8.938965 7.985038 45.127296 86 85 101
-8.938121 8.081554 45.123035 86 84 99
-8.938002 8.178716 45.122437 85 83 96
-8.938608 8.276546 45.125500 85 82 95
-8.939925 8.375055 45.132145 85 81 94
-8.941922 8.474237 45.142227 85 81 93
-8.944551 8.574070 45.155502 85 80 94
-8.947753 8.674513 45.171665 85 79 95
-8.951450 8.775513 45.190331 85 78 96
-8.955555 8.876997 45.211056 85 77 98
-8.959970 8.978880 45.233337 85 77 99
-8.964587 9.081066 45.256653 85 77 100
-8.969297 9.183446 45.280430 85 77 99
-8.973984 9.285905 45.304089 84 77 98
-8.978531 9.388320 45.327045 83 77 97
-8.982824 9.490566 45.348721 83 77 95
-8.986753 9.592516 45.368553 83 76 93
-8.990213 9.694047 45.386021 82 76 93
-8.993112 9.795040 45.400654 82 76 92
-8.995363 9.895386 45.412022 82 76 92
-8.996900 9.994986 45.419777 81 75 92
-8.997668 10.093758 45.423656 80 74 91
-8.997639 10.191643 45.423508 78 74 91
-8.996803 10.288604 45.419289 77 74 91
-8.995178 10.384637 45.411083 77 75 92
-8.992806 10.479764 45.399109 76 75 93
-8.989761 10.574047 45.383739 75 75 94
-8.986147 10.667589 45.365494 76 74 94
-8.982092 10.760524 45.345020 76 74 94
-8.977753 10.853027 45.323116 77 73 94
-8.973310 10.945309 45.300686 77 73 94
-8.968963 11.037612 45.278740 77 72 93
-8.964920 11.130198 45.258331 76 72 92
-8.961406 11.223359 45.240589 75 71 91
-8.958639 11.317387 45.226620 74 72 90
-8.956836 11.412583 45.217518 74 71 90
-8.956197 11.509236 45.214294 73 70 90
-8.956908 11.607624 45.217884 73 69 89
-8.959126 11.707997 45.229080 73 69 88
-8.962979 11.810573 45.248531 72 68 87
-8.968558 11.915526 45.276699 70 67 85
-8.975923 12.022991 45.313873 70 66 84
-8.985088 12.133050 45.360149 69 65 82
-8.996033 12.245729 45.415401 68 64 80
-9.008695 12.361003 45.479321 67 63 77
-9.022974 12.478789 45.551407 66 62 76
-9.038735 12.598953 45.630981 66 61 74
-9.055814 12.721309 45.717197 67 61 73
-9.074013 12.845623 45.809074 67 61 72
-9.093114 12.971620 45.905499 67 61 71
-9.112878 13.098987 46.005280 68 60 70
-9.133058 13.227385 46.107155 68 60 70
-9.153393 13.356449 46.209816 68 59 70
-9.173626 13.485806 46.311958 68 59 71
-9.193504 13.615077 46.412312 68 59 72
-9.212785 13.743890 46.509647 68 60 72
-9.231243 13.871887 46.602833 69 60 72
-9.248680 13.998738 46.690861 69 60 71
-9.264923 14.124150 46.772861 66 57 69
-9.279838 14.247875 46.848152 65 56 67
-9.293322 14.369715 46.916229 63 55 66
-9.771189 -0.421028 49.871410 78 63 69
-9.767782 -0.313413 49.854027 79 63 68
-9.764058 -0.205866 49.835018 79 63 67
-9.760027 -0.098397 49.814445 78 63 67
-9.755695 0.008982 49.792336 78 62 69
-9.751069 0.116262 49.768723 77 63 70
-9.746145 0.223434 49.743595 77 63 72
-9.740916 0.330487 49.716904 78 64 75
-9.735361 0.437410 49.688549 80 66 77
-9.729453 0.544191 49.658398 81 68 80
-9.723158 0.650817 49.626266 81 70 82
-9.716434 0.757270 49.591946 81 70 82
-9.709237 0.863534 49.555214 80 70 82
-9.701524 0.969587 49.515850 79 70 81
-9.693251 1.075409 49.473625 77 69 81
-9.684385 1.180976 49.428375 77 68 81
-9.674893 1.286265 49.379929 77 67 83
-9.664758 1.391253 49.328197 80 68 86
-9.653971 1.495916 49.273140 83 70 90
-9.642538 1.600235 49.214790 85 70 91
-9.630475 1.704191 49.153221 87 70 92
-9.617809 1.807768 49.088577 87 70 92
-9.604580 1.910954 49.021057 88 70 90
-9.590827 2.013740 48.950863 88 69 88
-9.576599 2.116117 48.878242 89 68 87
-9.561944 2.218083 48.803444 89 67 86
-9.546905 2.319632 48.726685 90 66 86
-9.531522 2.420764 48.648170 91 67 86
-9.515830 2.521475 48.568085 91 67 86
-9.499852 2.621762 48.486534 89 65 85
-9.483603 2.721619 48.403599 86 62 82
-9.467090 2.821040 48.319313 82 59 79
-9.450305 2.920014 48.233646 82 58 79
-9.433239 3.018529 48.146545 82 59 78
-9.415878 3.116570 48.057938 81 60 77
-9.398207 3.214123 47.967743 80 61 77
-9.380211 3.311173 47.875893 80 63 76
-9.361885 3.407707 47.782356 81 65 77
-9.343230 3.503714 47.687145 82 66 78
-9.324266 3.599191 47.590355 84 67 80
-9.305025 3.694141 47.492149 86 67 82
-9.285557 3.788575 47.392784 87 67 83
-9.265928 3.882514 47.292603 87 68 84
-9.246226 3.975988 47.192043 86 68 86
-9.226547 4.069040 47.091606 87 71 89
-9.207002 4.161718 46.991848 90 75 93
-9.187709 4.254084 46.893375 93 79 97
-9.168785 4.346200 46.796791 94 82 100
-9.150347 4.438135 46.702686 93 85 101
-9.132502 4.529959 46.611599 92 85 101
-9.115340 4.621736 46.524010 90 86 100
-9.098938 4.713530 46.440296 88 87 100
-9.083351 4.805393 46.360741 86 87 100
-9.068609 4.897370 46.285500 86 87 101
-9.054722 4.989493 46.214619 88 88 102
-9.041674 5.081783 46.148022 90 89 103
-9.029431 5.174247 46.085541 91 90 104
-9.017944 5.266883 46.026909 92 90 105
-9.007149 5.359678 45.971809 92 90 105
-8.996972 5.452610 45.919868 92 90 105
-8.987338 5.545653 45.870701 93 89 104
-8.978172 5.638779 45.823917 94 89 105
-8.969403 5.731956 45.779163 95 90 105
-8.960968 5.825157 45.736111 95 90 105
-8.952810 5.918355 45.694473 94 89 103
-8.944889 6.011534 45.654045 92 87 101
-8.937169 6.104675 45.614639 89 84 98
-8.929626 6.197770 45.576145 86 80 94
-8.922248 6.290814 45.538483 83 77 91
-8.915026 6.383808 45.501621 81 75 89
-8.907962 6.476758 45.465565 80 73 86
-8.901058 6.569671 45.430332 80 71 84
-8.894321 6.662558 45.395950 79 71 82
-8.887767 6.755434 45.362492 79 70 80
-8.881406 6.848315 45.330029 78 69 79
-8.875256 6.941221 45.298637 77 67 77
-8.869336 7.034176 45.268429 77 66 76
-8.863674 7.127206 45.239525 76 66 76
-8.858297 7.220345 45.212086 76 67 77
-8.853240 7.313629 45.186272 76 68 79
-8.848542 7.407103 45.162296 76 70 83
-8.844246 7.500814 45.140369 77 74 87
-8.840398 7.594815 45.120728 78 76 90
-8.837045 7.689163 45.103615 82 81 96
-8.834234 7.783915 45.089272 86 85 101
-8.832007 7.879126 45.077904 88 86 103
-8.830402 7.974848 45.069710 88 86 101
-8.829446 8.071130 45.064827 87 85 99
-8.829156 8.168005 45.063347 86 84 97
-8.829535 8.265503 45.065289 86 82 96
-8.830578 8.363635 45.070606 86 82 95
-8.832257 8.462401 45.079178 86 81 95
-8.834536 8.561785 45.090809 87 80 95
-8.837360 8.661755 45.105225 87 80 97
-8.840665 8.762261 45.122089 87 79 98
-8.844371 8.863243 45.141006 87 79 100
-8.848390 8.964623 45.161514 87 80 102
-8.852625 9.066314 45.183132 87 80 103
-8.856975 9.168216 45.205334 87 81 103
-8.861332 9.270222 45.227570 86 80 101
-8.865587 9.372216 45.249294 85 79 99
-8.869636 9.474082 45.269955 84 79 97
-8.873370 9.575700 45.289017 84 78 95
-8.876696 9.676951 45.305988 83 78 94
-8.879519 9.777726 45.320400 83 78 93
-8.881763 9.877916 45.331848 83 77 92
-8.883358 9.977427 45.339989 82 76 92
-8.884256 10.076184 45.344578 82 76 91
-8.884427 10.174129 45.345451 81 76 91
-8.883864 10.271227 45.342575 80 76 92
-8.882584 10.367476 45.336040 79 76 93
-8.880626 10.462898 45.326050 79 76 94
-8.878064 10.557559 45.312973 79 75 95
-8.874997 10.651558 45.297318 79 75 95
-8.871549 10.745027 45.279716 80 75 95
-8.867871 10.838141 45.260952 81 74 95
-8.864137 10.931103 45.241890 80 73 95
-8.860536 11.024148 45.223511 79 73 94
-8.857269 11.117535 45.206837 78 72 93
-8.854548 11.211539 45.192947 77 71 92
-8.852579 11.306446 45.182896 76 71 92
-8.851566 11.402541 45.177731 76 71 92
-8.851697 11.500099 45.178398 75 71 92
-8.853144 11.599383 45.185780 75 70 91
-8.856049 11.700626 45.200607 74 70 90
-8.860527 11.804029 45.223465 73 70 89
-8.866658 11.909752 45.254757 72 68 87
-8.874491 12.017913 45.294735 71 67 85
-8.884033 12.128581 45.343437 70 66 84
-8.895255 12.241769 45.400711 70 66 82
-8.908090 12.357442 45.466221 69 65 80
-8.922438 12.475513 45.539452 68 64 78
-8.938164 12.595843 45.619717 69 64 76
-8.955108 12.718248 45.706200 70 64 74
-8.973082 12.842501 45.797935 70 64 73
-8.991876 12.968330 45.893860 70 63 72
-9.011266 13.095441 45.992825 71 62 72
-9.031018 13.223508 46.093639 70 61 72
-9.050891 13.352186 46.195065 70 61 72
-9.070642 13.481122 46.295876 70 61 72
-9.090039 13.609963 46.394878 70 61 72
-9.108858 13.738358 46.490929 70 61 72
-9.126891 13.865973 46.582966 70 61 72
-9.143952 13.992498 46.670048 70 61 71
-9.159884 14.117659 46.751366 67 59 68
-9.174561 14.241220 46.826267 65 58 66
-9.187886 14.362992 46.894279 64 57 65
-9.199805 14.482844 46.955112 63 57 63
-9.210301 14.600703 47.008686 63 57 63
-9.657641 -0.528203 49.840237 79 63 73
-9.654473 -0.420627 49.823883 79 63 71
-9.650954 -0.313109 49.805725 79 63 70
-9.647099 -0.205662 49.785831 79 63 70
-9.642927 -0.098298 49.764297 79 63 70
-9.638447 0.008973 49.741180 79 62 70
-9.633671 0.116140 49.716534 78 63 71
-9.628603 0.223195 49.690376 77 63 72
-9.623239 0.330126 49.662693 78 64 74
-9.617562 0.436925 49.633396 80 67 77
-9.611552 0.543578 49.602383 82 69 80
-9.605176 0.650072 49.569477 83 71 82
-9.598397 0.756393 49.534496 83 72 82
-9.591175 0.862523 49.497219 81 72 82
-9.583466 0.968443 49.457439 80 71 81
-9.575230 1.074133 49.414932 77 70 81
-9.566431 1.179570 49.369526 76 69 81
-9.557037 1.284731 49.321049 77 69 82
-9.547029 1.389594 49.269398 78 69 85
-9.536395 1.494136 49.214520 81 70 87
-9.525139 1.598338 49.156429 83 71 89
-9.513272 1.702179 49.095188 85 72 91
-9.500817 1.805645 49.030914 87 72 90
-9.487808 1.908722 48.963779 87 71 89
-9.474283 2.011400 48.893978 87 70 87
-9.460286 2.113671 48.821743 87 69 86
-9.445858 2.215530 48.747284 88 68 85
-9.431043 2.316973 48.670826 89 67 86
-9.415877 2.417997 48.592560 91 67 86
-9.400392 2.518597 48.512646 91 67 86
-9.384610 2.618770 48.431202 91 67 86
-9.368544 2.718509 48.348289 88 64 84
-9.352198 2.817807 48.263931 85 61 82
-9.335566 2.916651 48.178101 84 61 81
-9.318639 3.015030 48.090744 83 61 80
-9.301398 3.112928 48.001770 82 62 79
-9.283829 3.210328 47.911098 81 63 79
-9.265915 3.307214 47.818653 80 64 78
-9.247650 3.403573 47.724392 81 65 77
-9.229035 3.499393 47.628326 82 66 78
-9.210087 3.594668 47.530540 84 67 80
-9.190836 3.689400 47.431190 86 67 82
-9.171332 3.783599 47.330540 86 68 83
-9.151645 3.877287 47.228939 86 68 85
-9.131857 3.970493 47.126816 86 69 86
-9.112070 4.063259 47.024700 87 71 89
-9.092395 4.155636 46.923168 89 74 93
-9.072954 4.247685 46.822838 91 78 96
