ply
format ascii 1.0
element vertex 1150
property float x
property float y
property float z
property uchar red
property uchar green
property uchar blue
end_header
-2.988640 -6.494805 58.033844 201 147 163
-2.983493 -6.358734 57.933899 201 147 163
-2.978523 -6.223463 57.837391 200 147 163
-2.973738 -6.088987 57.744476 200 147 161
-2.969145 -5.955297 57.655281 200 147 161
-2.964751 -5.822381 57.569950 201 148 162
-2.960562 -5.690229 57.488609 201 149 162
-2.956585 -5.558826 57.411396 201 150 163
-2.952825 -5.428155 57.338387 200 151 164
-2.949286 -5.298195 57.269665 200 152 165
-2.945970 -5.168923 57.205276 200 154 167
-2.942879 -5.040313 57.145245 200 156 169
-2.940010 -4.912333 57.089531 201 157 172
-2.937360 -4.784952 57.038086 202 159 175
-2.934926 -4.658133 56.990810 202 160 178
-2.932700 -4.531840 56.947582 203 162 181
-2.930674 -4.406035 56.908249 204 165 183
-2.928839 -4.280678 56.872623 205 167 185
-2.927187 -4.155734 56.840534 206 169 186
-2.925706 -4.031165 56.811779 207 170 187
-2.924386 -3.906934 56.786152 208 171 188
-2.923218 -3.783011 56.763477 208 172 189
-2.922192 -3.659364 56.743553 208 173 191
-2.921299 -3.535962 56.726204 208 173 192
-2.920530 -3.412781 56.711262 209 174 193
-2.919876 -3.289794 56.698570 210 176 195
-2.919331 -3.166979 56.687984 212 178 197
-2.918886 -3.044315 56.679344 213 179 199
-2.918534 -2.921781 56.672512 214 179 199
-2.918266 -2.799358 56.667313 214 179 199
-2.918075 -2.677027 56.663605 214 180 200
-2.917952 -2.554771 56.661217 214 181 199
-2.917887 -2.432575 56.659946 212 181 198
-2.917870 -2.310421 56.659618 211 181 196
-2.917890 -2.188298 56.660015 211 182 195
-2.917938 -2.066191 56.660938 210 181 193
-2.918001 -1.944092 56.662167 209 181 192
-2.918070 -1.821990 56.663498 213 184 195
-2.918133 -1.699880 56.664734 217 187 199
-2.918181 -1.577755 56.665665 217 185 198
-2.918204 -1.455615 56.666115 219 186 198
-2.918195 -1.333457 56.665920 227 193 204
-2.918144 -1.211284 56.664944 230 195 206
-2.918048 -1.089097 56.663071 228 193 204
-2.917900 -0.966902 56.660198 230 193 204
-2.917697 -0.844703 56.656265 234 195 206
-2.917438 -0.722507 56.651237 237 197 208
-2.917124 -0.600321 56.645130 237 196 209
-2.916755 -0.478153 56.637966 235 193 207
-2.916335 -0.356009 56.629810 237 195 208
-2.915870 -0.233897 56.620777 240 198 211
-2.915366 -0.111823 56.611000 242 199 213
-2.914833 0.010210 56.600651 243 200 214
-2.914281 0.132197 56.589924 241 199 213
-2.913719 0.254137 56.579025 238 196 210
-2.913162 0.376030 56.568195 237 194 209
-2.912619 0.497879 56.557652 242 199 214
-2.912103 0.619688 56.547630 247 202 217
-2.911623 0.741464 56.538319 248 201 216
-2.911189 0.863213 56.529896 249 200 215
-2.910807 0.984943 56.522472 249 197 212
-2.910482 1.106663 56.516155 250 194 209
-2.910214 1.228379 56.510948 250 193 207
-2.910002 1.350100 56.506844 250 192 206
-2.909843 1.471829 56.503757 247 189 204
-2.909732 1.593571 56.501587 243 185 200
-2.909659 1.715327 56.500183 241 183 199
-2.909618 1.837096 56.499382 241 185 202
-2.909599 1.958877 56.499008 240 185 202
-2.909593 2.080665 56.498890 236 183 200
-2.909592 2.202457 56.498875 233 181 198
-2.909590 2.324248 56.498844 231 180 196
-2.909582 2.446034 56.498680 233 183 198
-2.909563 2.567809 56.498306 241 191 207
-2.909530 2.689570 56.497681 246 196 212
-2.909483 2.811315 56.496769 243 190 208
-2.909421 2.933040 56.495548 238 183 201
-2.909342 3.054742 56.494015 239 183 199
-2.909244 3.176418 56.492123 244 187 203
-2.909127 3.298063 56.489853 248 191 207
-2.908988 3.419672 56.487144 249 193 208
-2.908823 3.541239 56.483936 247 190 205
-2.908628 3.662753 56.480152 240 179 193
-2.908400 3.784209 56.475719 233 170 184
-2.908135 3.905596 56.470581 227 165 180
-2.907834 4.026910 56.464733 219 158 174
-2.907497 4.148149 56.458199 220 163 179
-2.907131 4.269316 56.451092 237 186 202
-2.906746 4.390424 56.443615 250 199 215
-2.906358 4.511496 56.436085 250 191 207
-2.905989 4.632565 56.428917 243 177 194
-2.905666 4.753678 56.422646 241 174 190
-2.905423 4.874898 56.417919 247 184 198
-2.905298 4.996302 56.415501 252 191 203
-2.905334 5.117977 56.416195 252 183 192
-2.905576 5.240028 56.420891 248 170 175
-2.906071 5.362566 56.430515 245 164 166
-2.906867 5.485713 56.445969 243 163 162
-2.908009 5.609595 56.468143 241 164 160
-2.909540 5.734337 56.497860 239 164 159
-2.911496 5.860065 56.535847 238 164 160
-2.913911 5.986900 56.582748 235 163 159
-2.916811 6.114953 56.639061 228 157 155
-2.920215 6.244325 56.705147 224 157 156
-2.924132 6.375103 56.781223 234 180 180
-2.928568 6.507361 56.867359 246 204 204
-2.933519 6.641157 56.963493 240 192 190
-2.938974 6.776529 57.069431 227 165 161
-2.944918 6.913504 57.184834 226 160 155
-2.951327 7.052089 57.309284 231 168 162
-2.958175 7.192279 57.442261 232 171 164
-2.965431 7.334051 57.583164 228 171 164
-2.973062 7.477372 57.731339 225 171 164
-2.981030 7.622197 57.886074 221 169 163
-2.989298 7.768465 58.046616 215 166 160
-2.997825 7.916111 58.212196 208 161 155
-3.006570 8.065055 58.382011 198 156 149
-3.015491 8.215211 58.555241 189 150 144
-3.024545 8.366482 58.731056 182 147 142
-3.033689 8.518764 58.908619 175 145 141
-3.042880 8.671942 59.087074 171 144 142
-3.052073 8.825897 59.265583 164 143 143
-3.061224 8.980503 59.443298 155 138 140
-3.070293 9.135627 59.619396 143 132 134
-3.079237 9.291133 59.793072 131 123 128
-3.088016 9.446884 59.963547 123 118 123
-3.096593 9.602741 60.130085 120 116 124
-3.104932 9.758570 60.292007 118 116 126
-3.113000 9.914235 60.448681 118 114 127
-3.120770 10.069612 60.599556 119 113 129
-3.128216 10.224583 60.744148 119 112 129
-3.135318 10.379037 60.882061 118 111 129
-3.142059 10.532876 61.012962 118 110 128
-3.148426 10.686008 61.136589 118 110 127
-3.154408 10.838354 61.252758 117 109 126
-3.160000 10.989839 61.361328 116 108 124
-3.165195 11.140398 61.462204 115 108 123
-3.169990 11.289968 61.555321 114 107 121
-3.174383 11.438490 61.640621 112 107 120
-3.178371 11.585905 61.718067 112 107 120
-3.181953 11.732155 61.787621 112 107 120
-3.185126 11.877178 61.849224 112 106 119
-3.187886 12.020911 61.902821 111 105 118
-3.190229 12.163290 61.948334 112 104 118
-3.192153 12.304245 61.985691 113 103 117
-3.193654 12.443711 62.014828 113 103 116
-3.194729 12.581629 62.035706 113 102 116
-3.195379 12.717943 62.048325 112 101 116
-3.195605 12.852611 62.052723 112 100 116
-3.195415 12.985600 62.049023 111 100 116
-3.194818 13.116905 62.037426 110 100 116
-3.193830 13.246539 62.018242 110 100 117
-3.192472 13.374543 61.991882 110 101 118
-3.190773 13.500985 61.958881 110 102 119
-3.188763 13.625961 61.919865 112 105 122
-3.186484 13.749603 61.875599 116 109 127
-3.183978 13.872068 61.826935 117 111 128
-3.181293 13.993538 61.774807 114 109 126
-3.178482 14.114221 61.720222 115 111 128
-3.175599 14.234344 61.664230 119 114 132
-3.172698 14.354147 61.607903 115 111 127
-3.169833 14.473874 61.552280 112 106 123
-3.167058 14.593770 61.498383 111 103 120
-3.164420 14.714075 61.447166 109 101 117
-3.161965 14.835015 61.399487 109 100 115
-3.159730 14.956793 61.356091 108 99 114
-3.157747 15.079586 61.317585 107 99 112
-3.156041 15.203547 61.284454 106 98 110
-3.154628 15.328789 61.257011 104 97 109
-3.153516 15.455389 61.235424 102 95 107
-3.152706 15.583388 61.219692 101 94 105
-3.152191 15.712791 61.209698 99 93 105
-3.151958 15.843570 61.205181 99 91 105
-3.151988 15.975657 61.205753 99 91 106
-3.152255 16.108959 61.210934 100 92 108
-3.152730 16.243359 61.220169 100 91 109
-3.153382 16.378716 61.232830 98 90 108
-3.154177 16.514875 61.248268 98 89 107
-3.155081 16.651674 61.265812 98 89 107
-3.156058 16.788940 61.284782 97 90 107
-3.157074 16.926498 61.304516 97 91 106
-3.158096 17.064171 61.324352 97 93 105
-3.159090 17.201780 61.343670 96 93 103
-3.160028 17.339163 61.361877 96 94 102
-3.160879 17.476145 61.378407 96 94 102
-3.161616 17.612560 61.392715 97 94 102
-3.162212 17.748247 61.404285 98 93 103
-3.162641 17.883041 61.412624 99 93 104
-3.162879 18.016783 61.417244 100 92 105
-3.162901 18.149305 61.417675 100 92 106
-3.162684 18.280443 61.413448 101 92 108
-3.162202 18.410025 61.404095 102 92 109
-3.161433 18.537880 61.389160 102 92 110
-3.160352 18.663832 61.368172 101 93 109
-3.158936 18.787699 61.340675 100 94 108
-3.157162 18.909304 61.306225 99 94 107
-3.155007 19.028461 61.264381 98 94 107
-3.152449 19.144995 61.214714 99 96 107
-3.149467 19.258718 61.156811 100 97 107
-3.146042 19.369463 61.090294 101 98 107
-3.142155 19.477060 61.014824 101 97 107
-3.137791 19.581350 60.930069 101 96 106
-3.132935 19.682188 60.835777 100 96 107
-3.127577 19.779448 60.731747 100 95 107
-3.121708 19.873003 60.617783 99 95 108
-3.115325 19.962772 60.493832 99 94 108
-3.108427 20.048683 60.359879 97 93 107
-3.101017 20.130701 60.216003 96 92 107
-3.093105 20.208807 60.062351 97 92 108
-3.084700 20.283016 59.899143 97 93 109
-3.189300 -13.782325 64.635880 173 165 178
-3.182559 -13.614157 64.499275 175 166 180
-3.175674 -13.445967 64.359734 178 166 182
-3.168655 -13.277814 64.217476 180 167 183
-3.161510 -13.109756 64.072670 183 168 184
-3.154249 -12.941846 63.925522 187 171 186
-3.146883 -12.774143 63.776237 189 173 187
-3.139421 -12.606698 63.625011 189 173 185
-3.131874 -12.439567 63.472054 188 171 183
-3.124251 -12.272798 63.317558 188 171 182
-3.116563 -12.106443 63.161758 187 171 182
-3.108821 -11.940553 63.004860 186 170 181
-3.101036 -11.775171 62.847073 187 170 183
-3.093217 -11.610349 62.688622 188 172 185
-3.085378 -11.446130 62.529739 188 171 185
-3.077528 -11.282557 62.370651 187 169 184
-3.069679 -11.119677 62.211586 187 167 182
-3.061843 -10.957525 62.052773 186 166 180
-3.054030 -10.796142 61.894432 186 165 178
-3.046251 -10.635559 61.736782 186 164 177
-3.038516 -10.475807 61.580017 185 163 176
-3.030834 -10.316911 61.424324 184 163 174
-3.023212 -10.158891 61.269867 183 162 173
-3.015658 -10.001760 61.116776 183 162 171
-3.008178 -9.845531 60.965176 184 163 172
-3.000776 -9.690206 60.815151 188 166 175
-2.993454 -9.535786 60.666771 191 169 178
-2.986216 -9.382268 60.520084 190 166 176
-2.979063 -9.229647 60.375118 186 160 170
-2.971996 -9.077910 60.231888 183 154 165
-2.965015 -8.927053 60.090416 185 153 164
-2.958121 -8.777063 59.950699 187 153 164
-2.951315 -8.627933 59.812759 189 153 164
-2.944597 -8.479651 59.676617 190 152 164
-2.937970 -8.332214 59.542309 192 152 164
-2.931436 -8.185616 59.409885 194 152 164
-2.924998 -8.039852 59.279408 196 152 164
-2.918660 -7.894920 59.150951 198 152 165
-2.912426 -7.750821 59.024612 199 152 165
-2.906301 -7.607552 58.900490 199 151 165
-2.900292 -7.465114 58.778698 198 149 164
-2.894403 -7.323506 58.659348 198 148 163
-2.888641 -7.182729 58.542568 197 147 162
-2.883011 -7.042778 58.428471 196 145 161
-2.877520 -6.903652 58.317188 196 144 160
-2.872174 -6.765347 58.208843 196 143 160
-2.866979 -6.627860 58.103569 198 145 161
-2.861942 -6.491184 58.001488 200 146 162
-2.857070 -6.355314 57.902740 201 147 163
-2.852369 -6.220243 57.807465 201 147 163
-2.847845 -6.085963 57.715794 200 146 161
-2.843507 -5.952465 57.627861 200 147 161
-2.839359 -5.819738 57.543812 200 148 161
-2.835410 -5.687770 57.463768 200 148 162
-2.831663 -5.556546 57.387844 200 149 163
-2.828125 -5.426049 57.316132 200 150 164
-2.824798 -5.296257 57.248711 200 152 165
-2.821685 -5.167147 57.185612 200 154 167
-2.818786 -5.038692 57.126862 201 156 169
-2.816100 -4.910862 57.072430 201 157 172
-2.813624 -4.783624 57.022259 202 159 175
-2.811354 -4.656942 56.976246 203 161 178
-2.809284 -4.530782 56.934284 204 162 180
-2.807405 -4.405104 56.896221 205 165 183
-2.805711 -4.279870 56.861881 206 167 185
-2.804191 -4.155043 56.831078 207 169 186
-2.802836 -4.030586 56.803619 208 171 188
-2.801638 -3.906465 56.779327 209 172 189
-2.800585 -3.782646 56.757999 209 173 190
-2.799670 -3.659099 56.739456 209 173 191
-2.798884 -3.535795 56.723515 209 174 192
-2.798218 -3.412706 56.710018 210 175 193
-2.797664 -3.289807 56.698795 212 177 196
-2.797215 -3.167074 56.689690 213 179 198
-2.796863 -3.044487 56.682556 214 180 198
-2.796599 -2.922024 56.677212 214 179 197
-2.796416 -2.799663 56.673500 213 179 197
-2.796304 -2.677387 56.671238 213 180 198
-2.796255 -2.555178 56.670231 213 180 197
-2.796257 -2.433018 56.670284 212 180 196
-2.796301 -2.310893 56.671177 211 181 195
-2.796375 -2.188787 56.672676 210 181 194
-2.796468 -2.066688 56.674557 210 181 193
-2.796568 -1.944586 56.676586 211 181 193
-2.796664 -1.822473 56.678528 215 184 197
-2.796745 -1.700343 56.680172 217 184 198
-2.796801 -1.578191 56.681305 215 181 195
-2.796822 -1.456016 56.681736 219 184 198
-2.796801 -1.333819 56.681301 229 193 206
-2.796730 -1.211603 56.679859 233 196 208
-2.796603 -1.089371 56.677299 231 193 205
-2.796417 -0.967129 56.673519 232 193 205
-2.796169 -0.844885 56.668495 235 194 207
-2.795858 -0.722647 56.662197 239 196 209
-2.795486 -0.600422 56.654663 240 196 209
-2.795056 -0.478220 56.645935 237 193 207
-2.794571 -0.356049 56.636120 238 195 209
-2.794040 -0.233916 56.625355 242 199 213
-2.793471 -0.111828 56.613811 243 200 214
-2.792873 0.010210 56.601692 242 199 213
-2.792258 0.132195 56.589226 239 196 210
-2.791638 0.254126 56.576668 236 194 208
-2.791027 0.376004 56.564285 236 193 207
-2.790437 0.497832 56.552338 240 196 211
-2.789882 0.619617 56.541077 244 199 215
-2.789372 0.741365 56.530743 246 199 215
-2.788917 0.863085 56.521526 248 198 214
-2.788525 0.984788 56.513580 249 197 214
-2.788200 1.106483 56.506996 251 197 213
-2.787944 1.228181 56.501808 251 195 210
-2.787757 1.349889 56.498009 251 193 209
-2.787633 1.471614 56.495502 248 192 206
-2.787568 1.593362 56.494179 245 188 203
-2.787551 1.715134 56.493851 241 184 200
-2.787575 1.836932 56.494328 238 182 199
-2.787627 1.958751 56.495392 236 182 199
-2.787699 2.080590 56.496841 235 182 198
-2.787778 2.202441 56.498451 229 178 194
-2.787857 2.324298 56.500046 230 180 195
-2.787927 2.446154 56.501461 240 192 206
-2.787982 2.568003 56.502571 248 202 217
-2.788016 2.689836 56.503265 251 205 221
-2.788027 2.811649 56.503475 249 200 217
-2.788010 2.933434 56.503136 245 192 209
-2.787964 3.055185 56.502205 242 187 204
-2.787885 3.176895 56.500614 243 188 205
-2.787773 3.298558 56.498337 248 194 211
-2.787623 3.420166 56.495300 252 204 220
-2.787433 3.541709 56.491444 252 204 219
-2.787199 3.663178 56.486698 245 190 203
-2.786918 3.784564 56.481018 236 175 188
-2.786590 3.905858 56.474369 229 167 180
-2.786214 4.027054 56.466751 218 156 170
-2.785794 4.148151 56.458233 213 153 167
-2.785336 4.269154 56.448948 226 168 183
-2.784851 4.390075 56.439125 243 184 199
-2.784357 4.510937 56.429100 246 185 200
-2.783874 4.631777 56.419323 242 177 193
-2.783431 4.752642 56.410343 243 176 192
-2.783061 4.873594 56.402836 248 184 200
-2.782800 4.994712 56.397552 252 189 202
-2.782691 5.116086 56.395340 251 182 191
-2.782777 5.237817 56.397087 249 173 178
-2.783103 5.360019 56.403706 247 169 170
-2.783716 5.482814 56.416126 247 169 165
-2.784659 5.606325 56.435226 246 170 163
-2.785972 5.730681 56.461838 243 169 161
-2.787691 5.856005 56.496677 239 166 159
-2.789848 5.982418 56.540386 235 163 158
-2.792466 6.110030 56.593460 228 157 155
-2.795565 6.238943 56.656265 224 156 156
-2.799155 6.369242 56.729015 233 180 181
-2.803239 6.501002 56.811787 245 204 204
-2.807816 6.634283 56.904533 239 190 189
-2.812875 6.769125 57.007069 225 163 159
-2.818402 6.905555 57.119087 225 159 153
-2.824378 7.043588 57.240200 232 169 161
-2.830779 7.183221 57.369923 235 174 165
-2.837578 7.324441 57.507713 231 174 165
-2.844745 7.467222 57.652969 227 172 163
-2.852249 7.611526 57.805038 224 171 163
-2.860056 7.757309 57.963261 218 168 161
-2.868131 7.904514 58.126919 210 162 155
-2.876439 8.053076 58.295292 200 154 148
-2.884943 8.202921 58.467640 191 148 144
-2.893606 8.353966 58.643196 185 146 142
-2.902388 8.506120 58.821182 181 146 143
-2.911251 8.659280 59.000801 177 147 145
-2.920154 8.813337 59.181244 172 147 146
-2.929058 8.968174 59.361691 163 143 144
-2.937922 9.123663 59.541321 150 136 137
-2.946704 9.279672 59.719311 135 125 128
-2.955366 9.436063 59.894859 123 117 122
-2.963869 9.592696 60.067184 119 116 123
-2.972177 9.749432 60.235550 117 115 126
-2.980254 9.906127 60.399246 118 114 128
-2.988070 10.062650 60.557655 119 114 131
-2.995597 10.218869 60.710209 120 113 133
-3.002812 10.374666 60.856419 120 113 133
-3.009693 10.529926 60.995872 120 111 132
-3.016224 10.684550 61.128246 120 110 130
-3.022393 10.838444 61.253265 118 109 128
-3.028190 10.991526 61.370747 117 108 127
-3.033607 11.143720 61.480530 115 107 125
-3.038640 11.294957 61.582523 114 107 123
-3.043283 11.445172 61.676632 112 106 121
-3.047536 11.594305 61.762814 111 106 121
-3.051394 11.742292 61.841007 110 105 120
-3.054856 11.889073 61.911171 110 105 120
-3.057918 12.034586 61.973236 110 104 119
-3.060579 12.178764 62.027145 111 103 118
-3.062833 12.321544 62.072838 112 103 117
-3.064680 12.462862 62.110264 112 104 117
-3.066117 12.602657 62.139385 112 104 116
-3.067145 12.740879 62.160221 112 103 115
-3.067766 12.877483 62.172810 111 102 115
-3.067986 13.012441 62.177273 111 101 115
-3.067815 13.145739 62.173798 110 101 115
-3.067267 13.277393 62.162697 110 101 116
-3.066362 13.407438 62.144356 111 102 117
-3.065125 13.535937 62.119282 112 103 119
-3.063586 13.662981 62.088089 113 106 122
-3.061780 13.788692 62.051502 116 109 126
-3.059749 13.913218 62.010338 116 110 126
-3.057537 14.036737 61.965511 117 112 128
-3.055192 14.159445 61.917980 127 122 139
-3.052764 14.281559 61.868771 134 129 146
-3.050304 14.403311 61.818913 123 119 135
-3.047863 14.524939 61.769440 114 109 124
-3.045489 14.646677 61.721333 113 105 121
-3.043229 14.768761 61.675537 112 104 119
-3.041125 14.891410 61.632896 111 102 118
-3.039213 15.014824 61.594147 110 101 115
-3.037524 15.139179 61.559906 109 100 112
-3.036080 15.264623 61.530643 107 99 110
-3.034898 15.391270 61.506702 105 98 107
-3.033988 15.519200 61.488247 103 96 105
-3.033350 15.648455 61.475307 101 95 104
-3.032978 15.779042 61.467781 100 93 105
-3.032862 15.910938 61.465431 98 92 104
-3.032984 16.044081 61.467899 98 91 104
-3.033320 16.178379 61.474720 99 92 107
-3.033846 16.313725 61.485367 99 92 108
-3.034531 16.449980 61.499252 97 90 107
-3.035344 16.586994 61.515732 97 90 107
-3.036253 16.724609 61.534161 97 90 107
-3.037226 16.862658 61.553875 97 91 107
-3.038230 17.000967 61.574226 97 92 107
-3.039234 17.139362 61.594574 97 94 106
-3.040207 17.277668 61.614288 97 94 104
-3.041120 17.415716 61.632793 97 95 103
-3.041945 17.553337 61.649517 97 96 103
-3.042656 17.690365 61.663918 98 96 104
-3.043226 17.826630 61.675468 99 96 105
-3.043631 17.961971 61.683674 100 95 106
-3.043846 18.096220 61.688034 101 95 108
-3.043848 18.229212 61.688084 102 95 109
-3.043614 18.360775 61.683331 103 96 111
-3.043119 18.490740 61.673313 104 96 112
-3.042342 18.618933 61.657562 104 96 112
-3.041259 18.745169 61.635612 103 96 111
-3.039848 18.869274 61.607014 102 97 110
-3.038086 18.991068 61.571312 101 97 109
-3.035954 19.110367 61.528084 101 97 109
-3.033428 19.226994 61.476898 101 99 109
-3.030490 19.340767 61.417358 102 100 109
-3.027122 19.451519 61.349094 103 100 110
-3.023306 19.559084 61.271774 103 100 110
-3.019029 19.663303 61.185078 102 99 109
-3.014276 19.764034 61.088757 101 97 110
-3.009039 19.861155 60.982620 101 97 110
-3.003308 19.954538 60.866482 100 97 111
-2.997081 20.044100 60.740280 99 96 110
-2.990357 20.129768 60.604000 97 95 109
-2.983139 20.211510 60.457726 96 94 108
-2.975435 20.289305 60.301594 97 94 109
-2.967255 20.363157 60.135815 97 96 109
-3.047673 -13.771958 64.587265 173 165 178
-3.041234 -13.603927 64.450806 176 166 180
-3.034659 -13.435884 64.311478 179 167 183
-3.027958 -13.267888 64.169464 182 167 184
-3.021139 -13.099991 64.024948 184 169 186
-3.014210 -12.932247 63.878109 187 171 186
-3.007180 -12.764708 63.729134 189 172 186
-3.000059 -12.597425 63.578213 189 172 185
-2.992855 -12.430452 63.425545 188 171 183
-2.985578 -12.263835 63.271320 188 171 182
-2.978236 -12.097624 63.115746 186 170 181
-2.970841 -11.931866 62.959026 185 169 180
-2.963403 -11.766611 62.801380 186 169 182
-2.955930 -11.601903 62.643021 188 171 184
-2.948435 -11.437790 62.484180 188 170 185
-2.940928 -11.274317 62.325092 186 167 183
-2.933420 -11.111526 62.165985 185 165 181
-2.925923 -10.949460 62.007099 185 164 179
-2.918447 -10.788157 61.848660 185 165 178
-2.911002 -10.627654 61.690895 186 165 178
-2.903600 -10.467981 61.534016 186 165 178
-2.896247 -10.309165 61.378204 186 164 177
-2.888955 -10.151229 61.223656 187 165 177
-2.881727 -9.994186 61.070496 189 168 178
-2.874573 -9.838052 60.918865 191 170 179
-2.867494 -9.682828 60.768848 191 170 180
-2.860496 -9.528519 60.620541 191 169 179
-2.853580 -9.375121 60.473980 188 165 175
-2.846748 -9.222627 60.329205 184 158 169
-2.840002 -9.071030 60.186234 183 154 165
-2.833341 -8.920320 60.045082 185 155 165
-2.826767 -8.770485 59.905766 188 155 165
-2.820280 -8.621518 59.768288 190 155 165
-2.813881 -8.473408 59.632675 191 155 165
-2.807572 -8.326149 59.498962 193 155 166
-2.801354 -8.179733 59.367195 195 155 167
-2.795231 -8.034158 59.237427 197 156 168
-2.789205 -7.889418 59.109730 200 156 169
-2.783282 -7.745514 58.984207 201 156 169
-2.777466 -7.602444 58.860947 201 154 168
-2.771762 -7.460207 58.740063 201 153 166
-2.766175 -7.318801 58.621662 201 152 165
-2.760711 -7.178226 58.505871 201 151 165
-2.755376 -7.038479 58.392807 201 149 165
-2.750175 -6.899557 58.282593 200 146 163
-2.745115 -6.761455 58.175354 199 144 162
-2.740201 -6.624170 58.071224 198 144 160
-2.735440 -6.487696 57.970318 199 143 160
-2.730837 -6.352025 57.872776 200 145 161
-2.726399 -6.217150 57.778721 202 147 163
-2.722132 -6.083065 57.688305 202 146 162
-2.718043 -5.949757 57.601643 201 147 161
-2.714138 -5.817216 57.518875 201 148 161
-2.710421 -5.685429 57.440113 200 149 162
-2.706899 -5.554381 57.365482 200 150 163
-2.703576 -5.424053 57.295055 199 150 164
-2.700455 -5.294425 57.228912 199 151 164
-2.697538 -5.165474 57.167099 200 153 166
-2.694826 -5.037171 57.109619 200 156 168
-2.692317 -4.909486 57.056442 201 157 171
-2.690008 -4.782388 57.007523 202 159 174
-2.687896 -4.655840 56.962761 203 160 176
-2.685975 -4.529809 56.922054 203 162 179
-2.684238 -4.404253 56.885242 204 164 181
-2.682677 -4.279138 56.852158 205 166 184
-2.681284 -4.154426 56.822639 206 168 185
-2.680050 -4.030079 56.796482 208 170 188
-2.678966 -3.906065 56.773514 209 172 190
-2.678024 -3.782349 56.753544 209 173 191
-2.677214 -3.658901 56.736385 209 173 192
-2.676529 -3.535692 56.721870 210 174 193
-2.675961 -3.412694 56.709820 210 175 193
-2.675501 -3.289881 56.700085 211 177 194
-2.675143 -3.167231 56.692490 213 178 196
-2.674878 -3.044719 56.686867 213 179 196
-2.674697 -2.922324 56.683044 213 178 194
-2.674593 -2.800026 56.680840 212 178 195
-2.674556 -2.677804 56.680046 213 180 195
-2.674575 -2.555639 56.680462 214 181 196
-2.674641 -2.433515 56.681854 212 180 195
-2.674742 -2.311415 56.683994 210 180 193
-2.674866 -2.189325 56.686623 210 180 192
-2.675002 -2.067233 56.689499 211 181 193
-2.675137 -1.945127 56.692360 214 183 196
-2.675260 -1.823002 56.694962 216 184 197
-2.675359 -1.700850 56.697071 214 181 195
-2.675425 -1.578669 56.698463 212 178 192
-2.675448 -1.456458 56.698948 219 182 197
-2.675419 -1.334220 56.698345 229 192 207
-2.675333 -1.211959 56.696522 233 195 208
-2.675184 -1.089679 56.693363 229 190 203
-2.674968 -0.967390 56.688789 231 191 203
-2.674685 -0.845098 56.682781 235 193 206
-2.674333 -0.722814 56.675323 238 194 207
-2.673915 -0.600547 56.666470 238 194 207
-2.673435 -0.478308 56.656300 237 193 207
-2.672899 -0.356104 56.644936 239 195 209
-2.672315 -0.233946 56.632557 243 199 212
-2.671692 -0.111839 56.619354 243 200 214
-2.671041 0.010211 56.605572 240 197 211
-2.670376 0.132200 56.591465 237 194 208
-2.669709 0.254129 56.577328 236 193 206
-2.669054 0.375998 56.563457 236 193 206
-2.668427 0.497813 56.550156 239 194 209
-2.667840 0.619580 56.537712 242 196 212
-2.667305 0.741307 56.526371 244 196 213
-2.666833 0.863006 56.516376 247 196 213
-2.666432 0.984689 56.507889 249 196 213
-2.666108 1.106366 56.501022 251 196 212
-2.665863 1.228050 56.495819 251 195 211
-2.665695 1.349751 56.492264 251 193 209
-2.665601 1.471478 56.490269 249 191 207
-2.665574 1.593236 56.489697 245 188 204
-2.665605 1.715028 56.490353 241 184 200
-2.665683 1.836856 56.492012 238 182 199
-2.665796 1.958717 56.494415 238 184 200
-2.665933 2.080607 56.497303 236 184 200
-2.666080 2.202517 56.500420 228 178 193
-2.666226 2.324441 56.503529 230 181 195
-2.666363 2.446369 56.506416 243 196 210
-2.666480 2.568290 56.508900 251 205 220
-2.666570 2.690196 56.510815 252 206 222
-2.666629 2.812076 56.512058 250 201 218
-2.666650 2.933920 56.512508 246 194 211
-2.666631 3.055720 56.512104 242 187 204
-2.666568 3.177466 56.510769 239 183 200
-2.666458 3.299148 56.508438 243 190 208
-2.666298 3.420756 56.505047 252 207 224
-2.666085 3.542279 56.500542 254 215 230
-2.665817 3.663707 56.494862 251 202 215
-2.665493 3.785030 56.487980 243 184 196
-2.665110 3.906239 56.479877 231 169 181
-2.664672 4.027328 56.470592 218 156 168
-2.664182 4.148297 56.460213 212 151 163
-2.663649 4.269151 56.448902 220 159 173
-2.663083 4.389903 56.436916 235 173 187
-2.662503 4.510579 56.424614 241 178 193
-2.661930 4.631215 56.412476 241 176 192
-2.661391 4.751859 56.401058 244 178 194
-2.660919 4.872576 56.391045 250 185 200
-2.660549 4.993442 56.383217 252 185 199
-2.660322 5.114549 56.378407 250 179 189
-2.660280 5.236000 56.377518 248 174 179
-2.660467 5.357906 56.381470 248 173 172
-2.660925 5.480390 56.391182 248 173 168
-2.661697 5.603574 56.407532 248 175 166
-2.662820 5.727586 56.431339 247 179 169
-2.664329 5.852548 56.463326 243 181 171
-2.666254 5.978580 56.504112 234 169 162
-2.668617 6.105791 56.554199 222 153 150
-2.671437 6.234282 56.613945 219 153 154
-2.674722 6.364139 56.683567 232 183 184
-2.678477 6.495436 56.763145 245 206 207
-2.682700 6.628233 56.852642 236 188 186
-2.687383 6.762573 56.951889 223 160 155
-2.692513 6.898486 57.060612 225 159 151
-2.698073 7.035988 57.178432 234 171 161
-2.704042 7.175084 57.304932 237 176 166
-2.710397 7.315766 57.439602 234 175 165
-2.717111 7.458016 57.581898 229 172 163
-2.724159 7.601810 57.731247 225 170 163
-2.731510 7.747108 57.887039 219 167 160
-2.739136 7.893870 58.048645 211 161 155
-2.747005 8.042041 58.215408 202 154 149
-2.755086 8.191561 58.386669 193 148 144
-2.763346 8.342360 58.561726 188 145 142
-2.771752 8.494360 58.739864 185 146 143
-2.780268 8.647470 58.920326 182 148 145
-2.788857 8.801589 59.102356 177 149 146
-2.797482 8.956609 59.285141 170 147 145
-2.806105 9.112409 59.467880 157 140 141
-2.814686 9.268859 59.649731 142 131 133
-2.823186 9.425824 59.829872 129 123 126
-2.831567 9.583160 60.007477 120 117 124
-2.839791 9.740725 60.181755 117 115 126
-2.847821 9.898368 60.351936 117 114 129
-2.855625 10.055947 60.517323 118 114 132
-2.863172 10.213324 60.677261 119 113 134
-2.870436 10.370367 60.831200 120 113 134
-2.877393 10.526951 60.978638 120 111 133
-2.884024 10.682963 61.119167 119 109 131
-2.890314 10.838301 61.252460 118 108 130
-2.896250 10.992872 61.378265 117 108 129
-2.901823 11.146591 61.496376 116 107 127
-2.907027 11.299385 61.606663 114 106 124
-2.911857 11.451180 61.709003 112 106 123
-2.916308 11.601913 61.803345 111 105 123
-2.920379 11.751521 61.889614 110 104 122
-2.924067 11.899943 61.967773 110 104 121
-2.927369 12.047114 62.037754 111 104 119
-2.930285 12.192977 62.099529 111 103 118
-2.932809 12.337463 62.153038 111 103 118
-2.934943 12.480517 62.198250 112 104 117
-2.936684 12.622079 62.235153 112 104 116
-2.938034 12.762101 62.263763 111 103 115
-2.938995 12.900539 62.284126 111 103 114
-2.939573 13.037367 62.296379 110 102 114
-2.939777 13.172571 62.300705 110 102 114
-2.939621 13.306165 62.297398 110 102 114
-2.939123 13.438177 62.286831 111 102 116
-2.938304 13.568668 62.269493 112 104 118
-2.937194 13.697722 62.245964 113 105 120
-2.935825 13.825456 62.216946 114 107 122
-2.934233 13.952007 62.183220 114 108 123
-2.932461 14.077544 62.145653 119 113 129
-2.930551 14.202253 62.105179 132 127 143
-2.928550 14.326344 62.062778 138 133 149
-2.926506 14.450036 62.019455 126 120 136
-2.924465 14.573558 61.976200 116 109 125
-2.922472 14.697137 61.933971 114 106 122
-2.920571 14.820998 61.893684 114 105 120
-2.918802 14.945359 61.856182 113 104 118
-2.917197 15.070412 61.822182 112 102 115
-2.915787 15.196329 61.792290 110 101 111
-2.914593 15.323256 61.766991 108 100 109
-2.913632 15.451307 61.746620 106 98 106
-2.912912 15.580563 61.731373 103 96 104
-2.912436 15.711066 61.721279 102 95 103
-2.912199 15.842830 61.716267 100 94 103
-2.912192 15.975831 61.716118 99 93 104
-2.912400 16.110016 61.720509 98 92 104
-2.912800 16.245298 61.728996 98 92 106
-2.913370 16.381573 61.741085 97 92 107
-2.914084 16.518709 61.756203 97 92 107
-2.914912 16.656565 61.773746 97 91 108
-2.915824 16.794983 61.793079 97 92 108
-2.916791 16.933802 61.813572 97 93 108
-2.917782 17.072853 61.834583 98 94 108
-2.918768 17.211962 61.855480 98 95 107
-2.919720 17.350958 61.875652 99 96 105
-2.920611 17.489674 61.894520 99 97 105
-2.921413 17.627935 61.911518 99 97 105
-2.922101 17.765579 61.926098 99 98 105
-2.922650 17.902433 61.937729 100 98 106
-2.923036 18.038332 61.945911 101 98 108
-2.923235 18.173109 61.950146 103 98 110
-2.923225 18.306589 61.949932 104 98 112
-2.922983 18.438604 61.944798 106 99 113
-2.922486 18.568975 61.934254 106 99 114
-2.921711 18.697529 61.917843 106 99 114
-2.920637 18.824081 61.895084 105 99 113
-2.919242 18.948452 61.865524 105 100 113
-2.917506 19.070463 61.828724 104 100 112
-2.915407 19.189930 61.784245 103 100 111
-2.912927 19.306675 61.731678 103 101 111
-2.910046 19.420523 61.670628 104 102 111
-2.906748 19.531303 61.600731 104 102 112
-2.903017 19.638853 61.521664 104 101 112
-2.898839 19.743019 61.433125 103 100 112
-2.894202 19.843657 61.334858 102 99 113
-2.889098 19.940645 61.226692 102 98 113
-2.883518 20.033859 61.108433 101 98 113
-2.877459 20.123217 60.980034 100 98 113
-2.870920 20.208645 60.841469 99 97 112
-2.863906 20.290104 60.692818 98 96 111
-2.856422 20.367575 60.534222 98 97 111
-2.848478 20.441059 60.365871 98 98 110
-2.906302 -13.761815 64.539696 174 165 178
-2.900165 -13.593920 64.403397 177 166 181
-2.893900 -13.426025 64.264282 181 168 184
-2.887517 -13.258183 64.122528 184 169 185
-2.881022 -13.090447 63.978302 186 170 187
-2.874424 -12.922865 63.831768 188 171 187
-2.867729 -12.755489 63.683105 189 172 187
-2.860947 -12.588368 63.532497 190 172 186
-2.854085 -12.421550 63.380119 190 172 185
-2.847152 -12.255081 63.226158 189 172 184
-2.840157 -12.089011 63.070812 188 172 183
-2.833108 -11.923388 62.914288 187 171 182
-2.826016 -11.758256 62.756786 187 170 183
-2.818889 -11.593663 62.598530 187 170 184
-2.811739 -11.429656 62.439747 187 169 184
-2.804576 -11.266280 62.280666 187 167 183
-2.797410 -11.103581 62.121540 186 165 182
-2.790252 -10.941601 61.962589 187 165 181
-2.783114 -10.780381 61.804077 187 166 181
-2.776006 -10.619957 61.646214 188 166 180
-2.768936 -10.460362 61.489231 188 166 180
-2.761916 -10.301628 61.333332 189 167 180
-2.754952 -10.143774 61.178692 191 169 181
-2.748053 -9.986820 61.025482 194 173 184
-2.741224 -9.830778 60.873829 195 174 185
-2.734470 -9.675656 60.723839 193 172 182
-2.727794 -9.521455 60.575600 191 169 180
-2.721200 -9.368174 60.429165 187 164 175
-2.714689 -9.215805 60.284576 183 158 169
-2.708262 -9.064342 60.141857 182 154 166
-2.701921 -8.913774 60.001026 185 155 166
-2.695664 -8.764091 59.862091 188 156 167
-2.689494 -8.615283 59.725063 190 156 168
-2.683410 -8.467340 59.589966 192 156 168
-2.677415 -8.320252 59.456829 194 157 168
-2.671510 -8.174016 59.325699 196 157 169
-2.665697 -8.028624 59.196625 199 158 170
-2.659981 -7.884073 59.069679 202 160 173
-2.654364 -7.740360 58.944958 204 160 173
-2.648852 -7.597485 58.822544 203 158 170
-2.643449 -7.455444 58.702560 203 156 168
-2.638160 -7.314238 58.585106 203 155 167
-2.632991 -7.173863 58.470310 204 153 167
-2.627946 -7.034317 58.358280 205 152 167
-2.623031 -6.895597 58.249146 206 152 168
-2.618252 -6.757697 58.143024 204 149 166
-2.613615 -6.620613 58.040043 201 145 162
-2.609125 -6.484339 57.940323 199 142 160
-2.604787 -6.348866 57.843994 200 143 160
-2.600607 -6.214187 57.751186 202 146 162
-2.596593 -6.080294 57.662033 202 146 162
-2.592748 -5.947175 57.576649 202 147 162
-2.589079 -5.814818 57.495167 201 148 162
-2.585590 -5.683210 57.417698 201 150 163
-2.582287 -5.552335 57.344349 201 151 164
-2.579174 -5.422175 57.275215 199 150 163
-2.576253 -5.292707 57.210342 198 151 163
-2.573526 -5.163910 57.149796 198 153 165
-2.570994 -5.035755 57.093563 199 155 167
-2.568655 -4.908212 57.041637 201 157 170
-2.566508 -4.781250 56.993950 202 158 173
-2.564548 -4.654832 56.950424 202 160 175
-2.562770 -4.528924 56.910946 202 162 177
-2.561168 -4.403489 56.875366 203 163 179
-2.559735 -4.278489 56.843529 204 165 182
-2.558462 -4.153887 56.815269 205 167 184
-2.557342 -4.029648 56.790401 207 169 187
-2.556367 -3.905737 56.768749 208 171 189
-2.555528 -3.782122 56.750126 209 172 191
-2.554818 -3.658770 56.734352 209 173 192
-2.554229 -3.535654 56.721260 208 173 192
-2.553752 -3.412745 56.710667 208 174 191
-2.553380 -3.290017 56.702415 208 175 191
-2.553106 -3.167446 56.696335 209 176 191
-2.552922 -3.045008 56.692238 210 176 191
-2.552818 -2.922680 56.689941 210 177 191
-2.552787 -2.800441 56.689247 211 178 192
-2.552818 -2.678271 56.689934 212 179 193
-2.552901 -2.556149 56.691776 213 180 193
-2.553025 -2.434059 56.694534 211 179 193
-2.553178 -2.311984 56.697937 209 177 190
-2.553349 -2.189908 56.701717 208 176 189
-2.553524 -2.067820 56.705608 212 179 193
-2.553692 -1.945710 56.709339 217 184 197
-2.553840 -1.823570 56.712639 216 183 196
-2.553959 -1.701395 56.715263 211 177 191
-2.554036 -1.579184 56.716980 212 177 191
-2.554063 -1.456937 56.717583 222 185 200
-2.554032 -1.334657 56.716896 231 193 208
-2.553937 -1.212349 56.714779 229 191 205
-2.553772 -1.090021 56.711128 225 185 200
-2.553536 -0.967681 56.705875 228 187 201
-2.553226 -0.845340 56.698994 233 191 204
-2.552844 -0.723008 56.690502 236 192 205
-2.552392 -0.600696 56.680470 237 192 205
-2.551875 -0.478415 56.668983 238 193 206
-2.551300 -0.356175 56.656219 240 194 209
-2.550675 -0.233986 56.642353 242 195 210
-2.550012 -0.111855 56.627621 241 196 211
-2.549322 0.010212 56.612289 239 194 208
-2.548618 0.132212 56.596661 237 192 206
-2.547915 0.254146 56.581043 236 192 205
-2.547227 0.376014 56.565781 236 192 205
-2.546571 0.497822 56.551201 237 192 206
-2.545959 0.619579 56.537621 239 192 208
-2.545405 0.741294 56.525322 241 193 209
-2.544921 0.862979 56.514565 244 193 210
-2.544514 0.984648 56.505524 245 193 210
-2.544190 1.106314 56.498344 246 192 208
-2.543953 1.227991 56.493084 247 192 208
-2.543802 1.349690 56.489712 247 191 207
-2.543731 1.471422 56.488144 245 189 205
-2.543735 1.593194 56.488228 243 186 203
-2.543804 1.715010 56.489758 241 184 201
-2.543926 1.836871 56.492466 238 183 200
-2.544088 1.958775 56.496067 239 185 202
-2.544277 2.080716 56.500267 237 184 201
-2.544479 2.202686 56.504745 229 178 193
-2.544681 2.324676 56.509235 229 179 193
-2.544871 2.446673 56.513454 239 190 205
-2.545038 2.568666 56.517178 245 196 212
-2.545175 2.690642 56.520199 245 196 212
-2.545272 2.812588 56.522358 244 193 210
-2.545324 2.934492 56.523514 241 189 206
-2.545326 3.056340 56.523567 238 182 200
-2.545275 3.178122 56.522427 235 178 196
-2.545166 3.299824 56.520008 241 188 205
-2.544997 3.421434 56.516251 250 210 226
-2.544765 3.542942 56.511105 254 219 234
-2.544469 3.664334 56.504528 253 207 221
-2.544107 3.785601 56.496502 247 189 201
-2.543681 3.906734 56.487041 234 170 181
-2.543194 4.027729 56.476204 221 158 169
-2.542649 4.148584 56.464119 221 159 170
-2.542057 4.269307 56.450966 229 167 178
-2.541429 4.389912 56.437023 235 172 184
-2.540783 4.510425 56.422684 238 174 187
-2.540141 4.630882 56.408428 240 175 189
-2.539530 4.751337 56.394859 244 178 193
-2.538980 4.871850 56.382648 248 181 196
-2.538527 4.992501 56.372585 250 180 194
-2.538209 5.113380 56.365517 249 177 187
-2.538066 5.234590 56.362335 248 175 179
-2.538139 5.356242 56.363960 247 173 172
-2.538470 5.478458 56.371311 246 171 165
-2.539097 5.601359 56.385235 244 175 165
-2.540057 5.725070 56.406555 246 192 180
-2.541383 5.849715 56.435993 246 201 190
-2.543101 5.975410 56.474152 233 179 171
-2.545234 6.102263 56.521519 218 149 146
-2.547798 6.230373 56.578453 216 152 152
-2.550802 6.359828 56.645161 233 187 189
-2.554251 6.490699 56.721752 244 208 209
-2.558142 6.623047 56.808163 235 185 184
-2.562470 6.756918 56.904266 223 159 154
-2.567222 6.892343 57.009800 227 160 151
-2.572384 7.029342 57.124428 234 170 159
-2.577938 7.167925 57.247761 235 174 162
-2.583863 7.308091 57.379341 233 173 162
-2.590138 7.449830 57.518688 229 170 161
-2.596739 7.593123 57.665279 225 168 160
-2.603642 7.737946 57.818577 219 165 158
-2.610822 7.884266 57.978024 213 161 155
-2.618253 8.032043 58.143040 205 155 151
-2.625908 8.181229 58.313026 196 149 145
-2.633758 8.331765 58.487347 190 146 143
-2.641774 8.483585 58.665356 187 146 143
-2.649924 8.636611 58.846344 184 147 145
-2.658175 8.790751 59.029583 180 148 146
-2.666493 8.945906 59.214294 173 147 145
-2.674841 9.101958 59.399677 162 143 142
-2.683182 9.258785 59.584896 150 137 137
-2.691476 9.416249 59.769096 137 129 132
-2.699687 9.574208 59.951420 125 120 127
-2.707774 9.732512 60.131020 118 115 126
-2.715703 9.891010 60.307079 116 114 129
-2.723436 10.049549 60.478817 117 114 132
-2.730943 10.207981 60.645519 118 113 135
-2.738194 10.366163 60.806545 120 112 135
-2.745164 10.523962 60.961323 120 111 134
-2.751831 10.681253 61.109383 119 110 133
-2.758178 10.837922 61.250317 118 109 131
-2.764189 10.993868 61.383823 117 108 130
-2.769856 11.148999 61.509655 116 107 128
-2.775169 11.303232 61.627636 114 106 126
-2.780122 11.456491 61.737633 112 104 123
-2.784712 11.608712 61.839561 111 104 123
-2.788936 11.759826 61.933353 110 103 122
-2.792791 11.909774 62.018967 110 103 121
-2.796276 12.058495 62.096355 111 103 120
-2.799389 12.205929 62.165497 111 103 119
-2.802130 12.352017 62.226353 112 103 118
-2.804497 12.496702 62.278912 112 104 117
-2.806490 12.639932 62.323174 112 104 116
-2.808111 12.781657 62.359173 111 104 114
-2.809363 12.921842 62.386974 111 104 113
-2.810251 13.060455 62.406704 110 104 113
-2.810785 13.197489 62.418549 109 104 114
-2.810976 13.332951 62.422802 110 104 115
-2.810842 13.466868 62.419815 111 104 116
-2.810402 13.599298 62.410057 112 105 118
-2.809683 13.730317 62.394081 113 106 120
-2.808713 13.860035 62.372559 113 107 121
-2.807528 13.988580 62.346218 114 107 122
-2.806163 14.116111 62.315910 118 111 126
-2.804658 14.242805 62.282505 126 119 134
-2.803057 14.368858 62.246956 128 122 136
-2.801403 14.494481 62.210217 122 115 130
-2.799738 14.619892 62.173244 117 109 124
-2.798105 14.745310 62.136974 116 107 122
-2.796543 14.870951 62.102291 115 106 120
-2.795089 14.997022 62.070007 114 104 117
-2.793776 15.123713 62.040833 113 102 114
-2.792629 15.251189 62.015369 111 101 111
-2.791671 15.379597 61.994099 109 99 108
-2.790917 15.509047 61.977360 107 98 106
-2.790377 15.639620 61.965359 104 97 105
-2.790052 15.771361 61.958149 103 96 104
-2.789941 15.904288 61.955681 101 95 104
-2.790035 16.038382 61.957760 100 94 104
-2.790319 16.173592 61.964077 99 94 105
-2.790777 16.309839 61.974243 98 93 105
-2.791386 16.447025 61.987770 98 93 106
-2.792123 16.585026 62.004131 97 93 107
-2.792961 16.723703 62.022739 98 93 108
-2.793873 16.862907 62.042992 98 94 109
-2.794831 17.002481 62.064278 98 95 109
-2.795808 17.142262 62.085964 99 95 109
-2.796776 17.282076 62.107452 100 96 109
-2.797706 17.421755 62.128124 101 97 108
-2.798575 17.561134 62.147415 101 98 107
-2.799356 17.700041 62.164757 101 99 107
-2.800025 17.838306 62.179604 101 99 107
-2.800556 17.975758 62.191414 102 99 108
-2.800928 18.112226 62.199677 103 99 111
-2.801118 18.247543 62.203888 105 100 113
-2.801102 18.381533 62.203541 106 101 114
-2.800860 18.514017 62.198147 107 101 115
-2.800368 18.644819 62.187222 108 102 115
-2.799605 18.773758 62.170277 108 102 115
-2.798549 18.900648 62.146839 107 102 114
-2.797181 19.025309 62.116455 107 103 114
-2.795480 19.147556 62.078671 107 103 114
-2.793426 19.267212 62.033062 106 103 114
-2.791001 19.384096 61.979221 106 103 114
-2.788188 19.498030 61.916756 106 103 114
-2.784971 19.608850 61.845310 106 102 114
-2.781335 19.716393 61.764568 105 102 114
-2.777267 19.820505 61.674236 104 101 115
-2.772757 19.921049 61.574070 103 101 115
-2.767796 20.017900 61.463902 102 100 116
-2.762376 20.110937 61.343540 102 100 115
-2.756495 20.200075 61.212940 101 100 115
-2.750151 20.285242 61.072079 101 99 114
-2.743350 20.366398 60.921036 100 100 113
-2.736095 20.443520 60.759933 99 100 112
-2.759334 -13.584082 64.356781 178 166 180
-2.753379 -13.416331 64.217888 182 168 183
-2.747312 -13.248642 64.076385 185 169 185
-2.741140 -13.081063 63.932442 187 171 187
-2.734870 -12.913641 63.786205 190 172 188
-2.728510 -12.746426 63.637859 191 172 188
-2.722065 -12.579462 63.487553 192 172 188
-2.715545 -12.412798 63.335468 192 173 187
-2.708955 -12.246477 63.181770 192 174 186
-2.702304 -12.080548 63.026661 192 174 186
-2.695601 -11.915056 62.870327 191 173 186
-2.688855 -11.750049 62.712982 190 172 185
-2.682075 -11.585570 62.554832 188 170 184
-2.675270 -11.421670 62.396118 187 168 183
-2.668450 -11.258394 62.237072 187 167 183
-2.661627 -11.095787 62.077930 189 168 184
-2.654811 -10.933894 61.918949 190 168 184
-2.648011 -10.772758 61.760372 190 167 183
-2.641240 -10.612416 61.602440 190 167 181
-2.634506 -10.452903 61.445381 191 168 182
-2.627819 -10.294250 61.289406 193 169 183
-2.621186 -10.136481 61.134708 194 171 184
-2.614615 -9.979616 60.981457 195 173 185
-2.608113 -9.823668 60.829800 194 173 185
-2.601683 -9.668646 60.679844 193 172 183
-2.595331 -9.514553 60.531689 192 169 181
-2.589058 -9.361387 60.385391 189 165 177
-2.582867 -9.209143 60.240997 184 158 171
-2.576759 -9.057812 60.098530 183 155 168
-2.570734 -8.907384 59.958015 185 155 168
-2.564794 -8.757850 59.819458 188 156 168
-2.558938 -8.609198 59.682877 191 157 168
-2.553167 -8.461417 59.548290 193 157 169
-2.547483 -8.314501 59.415726 195 158 170
-2.541888 -8.168439 59.285221 197 159 171
-2.536383 -8.023228 59.156837 201 160 172
-2.530973 -7.878862 59.030643 204 162 175
-2.525660 -7.735339 58.906719 205 162 175
-2.520448 -7.592656 58.785164 204 160 172
-2.515342 -7.450811 58.666084 204 158 170
-2.510347 -7.309803 58.549587 205 157 170
-2.505468 -7.169628 58.435795 206 155 170
-2.500710 -7.030283 58.324818 208 155 171
-2.496078 -6.891765 58.216778 210 155 172
-2.491577 -6.754067 58.111794 209 152 171
-2.487212 -6.617185 58.009987 205 148 167
-2.482988 -6.481111 57.911484 203 145 164
-2.478911 -6.345837 57.816399 202 144 162
-2.474987 -6.211354 57.724857 202 145 162
-2.471219 -6.077652 57.636978 202 146 162
-2.467613 -5.944721 57.552887 202 147 162
-2.464175 -5.812547 57.472710 201 148 162
-2.460910 -5.681116 57.396538 201 150 164
-2.457820 -5.550412 57.324486 201 151 164
-2.454911 -5.420416 57.256634 199 151 163
-2.452185 -5.291107 57.193043 197 152 164
-2.449642 -5.162460 57.133747 198 153 165
-2.447285 -5.034449 57.078758 199 155 167
-2.445111 -4.907043 57.028053 200 156 169
-2.443118 -4.780212 56.981586 202 158 172
-2.441304 -4.653920 56.939262 202 160 175
-2.439663 -4.528132 56.900993 202 161 176
-2.438189 -4.402812 56.866619 203 162 178
-2.436877 -4.277923 56.836010 203 164 181
-2.435718 -4.153428 56.808987 205 166 183
-2.434706 -4.029292 56.785385 207 169 186
-2.433833 -3.905481 56.765026 208 171 188
-2.433092 -3.781962 56.747738 209 172 190
-2.432474 -3.658705 56.733334 208 172 191
-2.431973 -3.535678 56.721653 206 171 189
-2.431581 -3.412856 56.712513 205 171 188
-2.431291 -3.290210 56.705742 206 173 189
-2.431095 -3.167716 56.701160 207 174 189
-2.430984 -3.045348 56.698582 207 175 189
-2.430951 -2.923085 56.697803 208 176 189
-2.430986 -2.800904 56.698616 209 177 189
-2.431078 -2.678783 56.700779 210 178 190
-2.431219 -2.556703 56.704048 211 178 191
-2.431395 -2.434645 56.708168 210 177 191
-2.431596 -2.312592 56.712841 209 176 190
-2.431808 -2.190529 56.717781 209 176 190
-2.432019 -2.068444 56.722717 215 181 195
-2.432217 -1.946327 56.727333 219 185 199
-2.432390 -1.824172 56.731369 215 181 194
-2.432527 -1.701974 56.734550 210 175 189
-2.432616 -1.579732 56.736649 214 178 192
-2.432651 -1.457447 56.737442 224 187 202
-2.432621 -1.335124 56.736755 230 192 207
-2.432522 -1.212769 56.734447 227 188 202
-2.432349 -1.090392 56.730415 224 184 198
-2.432100 -0.968001 56.724594 227 187 201
-2.431773 -0.845608 56.716976 232 190 204
-2.431370 -0.723226 56.707584 235 191 204
-2.430896 -0.600866 56.696514 237 192 205
-2.430354 -0.478541 56.683884 239 194 207
-2.429753 -0.356261 56.669857 241 194 208
-2.429101 -0.234037 56.654655 240 193 208
-2.428410 -0.111877 56.638538 239 192 207
-2.427693 0.010214 56.621807 238 191 206
-2.426963 0.132231 56.604782 236 190 204
-2.426235 0.254176 56.587807 235 189 203
-2.425525 0.376050 56.571255 235 189 203
-2.424849 0.497860 56.555481 235 188 202
-2.424221 0.619614 56.540829 236 189 204
-2.423654 0.741324 56.527615 238 190 206
-2.423161 0.863002 56.516109 240 189 206
-2.422750 0.984665 56.506523 242 189 206
-2.422427 1.106327 56.499008 244 190 207
-2.422197 1.228003 56.493622 245 191 207
-2.422057 1.349706 56.490360 245 190 206
-2.422004 1.471448 56.489128 243 187 203
-2.422031 1.593237 56.489758 242 186 203
-2.422128 1.715079 56.492020 240 184 201
-2.422283 1.836974 56.495636 238 183 200
-2.422482 1.958921 56.500286 238 185 201
-2.422711 2.080913 56.505630 237 185 202
-2.422955 2.202942 56.511307 232 181 197
-2.423199 2.324996 56.517014 231 181 196
-2.423431 2.447061 56.522411 235 185 200
-2.423638 2.569124 56.527233 239 188 204
-2.423809 2.691167 56.531219 240 190 206
-2.423936 2.813177 56.534184 242 190 208
-2.424011 2.935137 56.535946 240 187 205
-2.424030 3.057033 56.536377 235 178 196
-2.423986 3.178849 56.535366 231 173 191
-2.423878 3.300572 56.532829 238 185 203
-2.423701 3.422188 56.528698 250 210 226
-2.423454 3.543684 56.522938 254 220 235
-2.423135 3.665046 56.515511 254 207 221
-2.422745 3.786266 56.506424 247 187 200
-2.422286 3.907334 56.495712 233 168 178
-2.421762 4.028246 56.483471 225 161 170
-2.421177 4.149004 56.469841 233 174 184
-2.420542 4.269615 56.455040 241 184 194
-2.419871 4.390094 56.439373 239 176 187
-2.419179 4.510469 56.423248 236 170 182
-2.418490 4.630779 56.407166 239 172 186
-2.417828 4.751073 56.391731 242 175 190
-2.417224 4.871418 56.377647 245 177 192
-2.416711 4.991890 56.365685 247 178 191
-2.416326 5.112580 56.356701 248 178 186
-2.416106 5.233591 56.351582 248 176 180
-2.416092 5.355033 56.351234 246 174 172
-2.416320 5.477024 56.356556 244 171 164
-2.416828 5.599688 56.368408 243 177 165
-2.417650 5.723145 56.387589 247 199 186
-2.418817 5.847517 56.414787 246 208 196
-2.420353 5.972919 56.450619 231 179 170
-2.422279 6.099459 56.495548 218 150 145
-2.424611 6.227233 56.549931 223 160 160
-2.427357 6.356327 56.613979 239 196 198
-2.430521 6.486813 56.687786 246 209 210
-2.434103 6.618752 56.771320 235 182 181
-2.438096 6.752190 56.864452 226 159 154
-2.442491 6.887163 56.966949 229 162 152
-2.447274 7.023691 57.078503 234 170 157
-2.452430 7.161791 57.198765 235 172 159
-2.457942 7.301466 57.327324 234 172 160
-2.463792 7.442715 57.463753 230 170 160
-2.469959 7.585527 57.607594 225 167 159
-2.476423 7.729887 57.758358 220 164 158
-2.483164 7.875773 57.915573 215 161 156
-2.490159 8.023157 58.078716 208 156 152
-2.497385 8.172002 58.247261 199 150 147
-2.504818 8.322261 58.420631 193 146 144
-2.512433 8.473879 58.598236 190 147 144
-2.520201 8.626788 58.779415 186 147 145
-2.528093 8.780909 58.963482 182 148 145
-2.536077 8.936145 59.149685 175 148 145
-2.544118 9.092389 59.337231 167 145 142
