ply
format ascii 1.0
element vertex 1247
property float x
property float y
property float z
property uchar red
property uchar green
property uchar blue
end_header
-3.271267 16.655302 84.826408 50 34 33
-3.216133 16.554369 83.396751 49 33 31
-2.943299 16.795258 76.321960 47 33 31
-2.943299 16.959784 76.321960 46 33 31
-2.913342 16.950014 75.545143 47 33 31
-2.891271 16.983221 74.972832 48 33 32
-2.876742 17.058681 74.596085 48 33 32
-2.855220 17.090662 74.038010 47 33 31
-2.820058 17.037821 73.126213 47 33 31
-1.950500 12.874541 50.577927 50 37 36
-3.207547 7.992153 88.098640 54 43 41
-3.142277 8.573708 86.305939 58 44 43
-3.053512 8.512303 83.867912 58 43 44
-3.520988 10.440897 96.707626 59 47 49
-3.520988 10.649366 96.707626 59 48 51
-3.486914 10.752760 95.771751 59 49 53
-3.442495 10.819603 94.551727 59 51 55
-3.431566 10.988430 94.251564 60 53 55
-3.431566 11.191605 94.251564 57 51 53
-3.442495 11.431068 94.551727 51 44 46
-3.431566 11.597954 94.251564 43 35 38
-3.420707 11.763783 93.953300 37 29 31
-3.409916 11.928566 93.656914 36 27 28
-3.388537 12.054406 93.069725 38 28 27
-3.325979 12.028786 91.351517 41 29 28
-3.305637 12.150934 90.792793 44 31 29
-3.714582 16.293318 102.024887 56 38 39
-2.969625 13.904822 81.563850 56 38 39
-2.929386 13.889853 80.458649 55 39 39
-2.961489 14.217412 81.340393 55 39 39
-3.010984 14.633302 82.699837 54 39 38
-3.010984 14.811575 82.699837 54 39 37
-3.019395 15.031719 82.930847 53 38 37
-3.010984 15.168121 82.699837 53 38 37
-3.019395 15.389261 82.930847 52 36 37
-3.010984 15.524667 82.699837 52 35 37
-2.994303 15.615943 82.241669 52 35 37
-3.019395 15.925574 82.930847 52 34 36
-3.124114 16.662876 85.807060 51 33 34
-3.097259 16.703024 85.069466 50 33 32
-3.062162 16.695059 84.105499 49 32 30
-2.764561 16.545666 75.931564 47 32 30
-2.757509 16.666723 75.737862 47 32 30
-2.771650 16.916296 76.126259 47 32 30
-2.743511 16.906994 75.353409 47 33 31
-2.729655 16.983221 74.972832 48 33 32
-2.695619 17.090662 74.038010 47 33 31
-3.081646 7.967744 89.967400 57 45 42
-3.053884 8.088155 89.156883 58 45 42
-3.053884 8.280347 89.156883 59 46 44
-3.053884 8.472539 89.156883 61 46 45
-3.072336 8.717086 89.695595 62 46 46
-2.999833 8.700164 87.578888 62 46 47
-3.301764 10.406999 96.393646 63 49 53
-3.291079 10.580439 96.081688 62 50 54
-3.269914 10.718184 95.463799 62 51 56
-3.218175 10.751125 93.953300 63 53 58
-3.208023 10.919103 93.656914 63 54 58
-3.218175 11.156188 93.953300 60 53 55
-3.228392 11.394779 94.251564 53 45 48
-3.218175 11.561252 93.953300 45 36 38
-3.197935 11.689797 93.362396 39 29 31
-3.197935 11.891055 93.362396 37 27 27
-3.168048 11.979300 92.489853 39 28 27
-3.119458 11.991888 91.071297 41 29 28
-3.109919 12.150934 90.792793 44 30 29
-2.947662 12.259002 86.055771 50 35 33
-2.956231 12.480684 86.305939 51 35 34
-2.801497 13.943128 81.788544 56 39 39
-2.778534 14.003703 81.118149 55 38 39
-2.793800 14.256471 81.563850 55 39 39
-2.817018 14.552231 82.241669 54 39 39
-2.824843 14.770432 82.470116 54 39 38
-2.840624 15.031719 82.930847 53 39 37
-2.832711 15.168121 82.699837 53 38 37
-2.840624 15.389261 82.930847 52 37 37
-2.832711 15.524667 82.699837 52 35 37
-2.817018 15.615943 82.241669 51 34 36
-2.848581 15.970183 83.163147 51 34 34
-2.939143 16.662876 85.807060 50 33 32
-2.922251 16.751022 85.313911 49 32 31
-2.587642 16.461464 75.545143 48 32 30
-2.581074 16.582121 75.353409 48 32 31
-2.561570 16.779232 74.783989 49 33 32
-2.870311 8.498058 89.425430 64 49 48
-2.870311 8.690829 89.425430 65 49 49
-2.819359 8.725904 87.837997 66 49 51
-3.083959 10.373319 96.081688 67 51 56
-3.083959 10.580439 96.081688 66 52 57
-3.064126 10.718184 95.463799 66 53 59
-2.996677 10.683508 93.362396 66 54 60
-2.987283 10.850644 93.069725 65 55 60
-2.996677 11.086023 93.362396 62 53 57
-3.006130 11.322888 93.656914 55 46 49
-2.996677 11.488539 93.362396 46 36 39
-2.987283 11.653152 93.069725 40 29 31
-2.977948 11.816736 92.778885 38 27 28
-2.959451 11.942098 92.202614 39 27 27
-2.914200 11.955215 90.792793 42 28 27
-2.905315 12.113889 90.515984 45 30 29
-2.905315 12.309011 90.515984 48 33 31
-2.762155 12.259002 86.055771 51 35 34
-2.778260 12.517072 86.557556 52 36 35
-2.794555 13.716585 87.065224 54 39 41
-2.699556 14.156815 84.105499 55 40 40
-2.625188 14.119436 81.788544 54 39 39
-2.625188 14.295745 81.788544 54 39 39
-2.639732 14.552231 82.241669 54 39 39
-2.654438 14.811575 82.699837 54 39 39
-2.661853 15.031719 82.930847 53 39 38
-2.661853 15.210490 82.930847 52 38 37
-2.661853 15.389261 82.930847 51 37 37
-2.661853 15.568032 82.930847 51 35 36
-2.639732 15.615943 82.241669 50 34 35
-2.669309 15.970183 83.163147 49 33 33
-2.746234 16.614857 85.559776 48 32 31
-2.412515 16.378115 75.162636 50 33 31
-2.394330 16.415466 74.596085 50 33 31
-2.347151 16.249643 73.126213 50 33 32
-2.358771 19.181574 73.488220 53 37 36
-2.933806 6.354309 97.984299 56 40 42
-2.685629 8.717086 89.695595 68 51 52
-2.858339 10.306609 95.463799 70 53 59
-2.867559 10.546308 95.771751 70 54 60
-2.849177 10.683831 95.157829 69 55 62
-2.777948 10.616735 92.778885 69 56 63
-2.777948 10.816736 92.778885 68 56 63
-2.777948 11.016736 92.778885 63 53 59
-2.795419 11.287281 93.362396 56 46 51
-2.786656 11.452525 93.069725 47 37 41
-2.769294 11.580546 92.489853 42 30 33
-2.760694 11.743340 92.202614 41 28 30
-2.743652 11.868382 91.633461 42 28 29
-2.701956 11.882540 90.240860 44 29 29
-2.693768 12.040471 89.967400 46 31 30
-2.693768 12.234410 89.967400 49 33 31
-2.576648 12.259002 86.055771 52 35 34
-2.599250 12.553671 86.810646 53 36 35
-2.584138 12.666731 86.305939 54 37 37
-2.653562 13.771211 88.624603 55 40 41
-2.614539 13.756927 87.321304 55 40 42
-2.591672 13.823194 86.557556 55 41 42
-2.539838 14.095302 84.826408 55 41 42
-2.483082 13.959093 82.930847 55 41 40
-2.455645 13.981645 82.014481 55 40 39
-2.442152 14.080647 81.563850 55 40 39
-2.435461 14.217412 81.340393 54 40 39
-2.448880 14.472054 81.788544 54 40 39
-2.469287 14.770432 82.470116 54 40 39
-2.483082 15.031719 82.930847 53 39 38
-2.476165 15.168121 82.699837 52 38 37
-2.483082 15.389261 82.930847 51 36 36
-2.476165 15.524667 82.699837 50 34 36
-2.462447 15.615943 82.241669 49 33 34
-2.216816 16.133057 74.038010 51 33 32
-2.194922 19.134211 73.306770 54 38 37
-2.178783 19.150381 72.767754 54 38 37
-2.722585 6.354309 97.984299 59 42 43
-2.635602 6.355768 94.853806 60 42 44
-2.652551 6.602429 95.463799 61 43 44
-2.749811 8.977852 98.964142 67 51 51
-2.554004 8.734847 91.917160 70 52 53
-2.644049 10.273575 95.157829 74 54 62
-2.644049 10.478703 95.157829 74 56 63
-2.635602 10.649698 94.853806 73 57 65
-2.569917 10.583662 92.489853 73 58 67
-2.554004 10.716270 91.917160 71 58 66
-2.561936 10.948309 92.202614 66 54 61
-2.577948 11.216736 92.778885 58 47 53
-2.569917 11.381169 92.489853 50 38 43
-2.554004 11.508841 91.917160 44 32 35
-2.546122 11.670850 91.633461 43 29 31
-2.530501 11.795568 91.071297 44 29 31
-2.499828 11.846532 89.967400 46 30 30
-2.492276 12.004095 89.695595 48 32 31
-2.484769 12.160709 89.425430 50 33 32
-2.419189 12.590486 87.065224 54 37 36
-2.405083 12.703660 86.557556 55 38 38
-2.440661 13.080934 87.837997 55 39 39
-2.426304 13.192222 87.321304 55 40 40
-2.440661 13.459632 87.837997 55 40 41
-2.433461 13.608718 87.578888 56 41 42
-2.412115 13.676478 86.810646 56 41 43
-2.363734 13.952308 85.069466 55 42 43
-2.278849 13.804850 82.014481 55 41 41
-2.260119 13.866727 81.340393 56 40 40
-2.247802 13.965547 80.897118 55 40 39
-2.241694 14.101509 80.677292 54 40 39
-2.247802 14.314320 80.897118 54 40 39
-2.278849 14.688828 82.014481 53 40 39
-2.297892 14.989848 82.699837 52 39 38
-2.291509 15.125987 82.470116 51 38 36
-2.291509 15.303765 82.470116 49 36 34
-2.291509 15.481543 82.470116 48 33 34
-2.266328 15.487240 81.563850 48 33 33
-2.031880 15.934373 73.126213 52 35 34
-1.992617 15.935641 71.713142 52 34 34
-2.057215 19.165476 74.038010 56 39 38
-2.031880 19.087082 73.126213 55 39 38
-2.021920 19.150381 72.767754 54 38 38
-2.511364 6.354309 97.984299 62 43 44
-2.431129 6.355768 94.853806 64 44 45
-2.446763 6.602429 95.463799 64 44 45
-2.446763 6.808217 95.463799 64 44 46
-2.528051 8.948025 98.635353 70 52 55
-2.431129 10.240752 94.853806 77 56 64
-2.431129 10.445225 94.853806 77 58 66
-2.423387 10.615782 94.551727 77 59 68
-2.355862 10.518128 91.917160 76 61 69
-2.348591 10.683196 91.633461 74 60 69
-2.348591 10.880727 91.633461 68 56 64
-2.363178 11.147067 92.202614 60 49 56
-2.355862 11.310699 91.917160 51 39 45
-2.341364 11.438017 91.351517 45 32 36
-2.341364 11.634940 91.351517 43 29 32
-2.327044 11.759497 90.792793 44 29 30
-2.298923 11.810741 89.695595 46 31 30
-2.278274 11.896274 88.889946 49 32 31
-2.278274 12.087891 88.889946 51 34 33
-2.231505 12.590486 87.065224 55 37 37
-2.212045 12.666731 86.305939 55 37 38
-2.238069 13.003986 87.321304 54 38 39
-2.084776 13.516043 81.340393 56 42 43
-2.062177 13.542969 80.458649 57 42 42
-2.062177 13.716411 80.458649 57 41 40
-2.056604 13.852312 80.241196 56 40 39
-2.056604 14.025285 80.241196 55 40 39
-2.051060 14.159987 80.024910 53 40 38
-2.079080 14.528294 81.118149 53 40 38
-2.107876 14.906802 82.241669 52 39 37
-2.107876 15.084087 82.241669 50 37 35
-2.102053 15.219214 82.014481 47 34 32
-2.113732 15.481543 82.470116 47 32 32
-2.079080 15.402611 81.118149 47 32 32
-1.911918 16.093859 74.596085 53 35 35
-1.869640 15.895223 72.946541 53 35 35
-1.842478 15.974226 71.886787 54 35 35
-1.709985 15.976080 66.717400 55 39 39
-1.694751 15.976293 66.123032 56 40 39
-1.676087 15.941312 65.394806 56 40 39
-1.874245 19.087082 73.126213 56 39 39
-1.865057 19.150381 72.767754 54 38 38
-2.277593 6.292011 97.023666 64 45 45
-2.212519 6.315414 94.251564 66 45 46
-2.226656 6.560241 94.853806 67 46 47
-2.226656 6.764714 94.853806 67 46 48
-2.198560 6.881248 93.656914 66 46 48
-2.219565 10.208138 94.551727 79 57 65
-2.219565 10.411960 94.551727 79 59 67
-2.212519 10.582081 94.251564 78 60 69
-2.151060 10.485665 91.633461 77 62 70
-2.144441 10.650325 91.351517 75 61 70
-2.144441 10.847247 91.351517 70 58 66
-2.151060 11.078258 91.633461 62 50 57
-2.144441 11.241094 91.351517 51 40 46
-2.137863 11.402931 91.071297 44 32 36
-2.137863 11.599250 91.071297 42 29 32
-2.118369 11.688010 90.240860 44 29 31
-2.092923 11.739806 89.156883 46 31 31
-2.068081 11.790372 88.098640 49 33 32
-2.074236 12.015939 88.360840 51 34 33
-2.061963 12.702235 87.837997 54 37 37
-1.909434 13.340700 81.340393 58 43 43
-1.883631 13.333393 80.241196 58 42 43
-1.863485 13.361913 79.383003 58 42 42
-1.873504 13.605794 79.809792 58 42 41
-1.878554 13.814975 80.024910 57 41 40
-1.868481 13.912481 79.595825 55 39 39
-1.863485 14.046405 79.383003 53 39 38
-1.873504 14.293966 79.809792 53 39 37
-1.909434 14.743440 81.340393 51 39 37
-1.919954 15.000979 81.788544 49 36 34
-1.909434 15.094125 81.340393 46 33 32
-1.919954 15.353597 81.788544 46 32 31
-1.883631 15.236095 80.241196 47 33 31
-1.733690 15.933720 73.853836 55 35 35
-1.712391 15.895223 72.946541 55 35 35
-1.691610 16.012999 72.061264 55 35 35
-1.583962 16.012171 67.475548 56 39 39
-1.569692 16.012062 66.867661 56 39 39
-1.555677 16.011953 66.270630 56 40 39
-1.531744 15.906276 65.251083 57 40 40
-1.984149 6.236224 93.069725 69 47 48
-1.965663 6.774396 92.202614 69 48 50
-1.990388 9.878476 93.362396 81 56 62
-2.009344 10.175732 94.251564 81 57 65
-2.009344 10.378906 94.251564 81 59 68
-1.996667 10.515317 93.656914 80 61 70
-1.947518 10.453402 91.351517 79 63 71
-1.941544 10.617655 91.071297 77 63 71
-1.941544 10.813973 91.071297 71 59 67
-1.947518 11.044170 91.351517 62 51 57
-1.941544 11.206612 91.071297 52 41 46
-1.935607 11.368059 90.792793 45 33 37
-1.935607 11.563778 90.792793 43 30 32
-1.918010 11.652593 89.967400 44 30 31
-1.889383 11.669718 88.624603 46 31 31
-1.867090 11.720813 87.578888 48 33 32
-1.872613 11.944839 87.837997 50 34 33
-1.715294 13.196085 80.458649 59 43 42
-1.692362 13.190790 79.383003 59 42 42
-1.687849 13.326282 79.171310 60 42 42
-1.696899 13.569318 79.595825 58 42 41
-1.701461 13.777838 79.809792 57 40 40
-1.692362 13.875282 79.383003 55 39 38
-1.683360 13.971690 78.960747 53 38 37
-1.687849 14.179615 79.171310 51 37 36
-1.719955 14.623248 80.677292 50 37 35
-1.734091 14.918782 81.340393 49 36 34
-1.719955 14.971075 80.677292 48 34 33
-1.738855 15.311416 81.563850 48 34 33
-1.566692 15.854840 73.488220 56 35 36
-1.555143 15.895223 72.946541 56 35 36
-1.543764 15.935014 72.412788 56 35 35
-1.403422 15.905444 65.829803 57 40 40
-1.761435 6.158995 91.917160 71 48 49
-1.789130 9.878476 93.362396 85 57 62
-1.800454 10.143530 93.953300 84 58 65
-1.806169 10.378906 94.251564 84 60 68
-1.789130 10.482250 93.362396 82 62 70
-1.750595 10.453402 91.351517 81 63 71
-1.739888 10.585185 90.792793 78 63 70
-1.739888 10.780904 90.792793 72 59 65
-1.745225 11.010293 91.071297 63 51 56
-1.745225 11.206612 91.071297 53 42 46
-1.739888 11.368059 90.792793 47 34 37
-1.734583 11.528522 90.515984 44 31 33
-1.718862 11.617388 89.695595 45 30 32
-1.683264 11.566140 87.837997 46 31 31
-1.668456 11.652069 87.065224 48 32 32
-1.673363 11.874575 87.321304 49 34 33
-1.533540 13.124948 80.024910 59 42 41
-1.521239 13.190790 79.383003 60 42 41
-1.513147 13.290839 78.960747 60 42 42
-1.521239 13.533036 79.383003 59 41 41
-1.525317 13.740899 79.595825 57 40 39
-1.521239 13.875282 79.383003 55 39 37
-1.509134 13.934629 78.751305 53 37 35
-1.513147 14.141903 78.960747 51 36 34
-1.537685 14.544204 80.241196 49 35 34
-1.558749 14.918782 81.340393 49 35 34
-1.546042 14.971075 80.677292 49 35 34
-1.408276 15.854840 73.488220 57 35 37
-1.394469 15.856263 72.767754 57 35 36
-1.558467 6.139986 91.633461 73 48 49
-1.558467 6.732579 91.633461 73 49 51
-0.974794 5.693737 57.315140 85 56 58
-1.582895 9.847509 93.069725 88 58 63
-1.592881 10.111531 93.656914 88 60 66
-1.597922 10.346062 93.953300 87 61 68
-1.577948 10.416736 92.778885 85 62 70
-1.548906 10.421336 91.071297 82 63 69
-1.539461 10.552913 90.515984 78 62 67
-1.539461 10.748035 90.515984 71 58 62
-1.544169 10.976623 90.792793 62 51 54
-1.544169 11.172341 90.792793 54 43 45
-1.539461 11.333401 90.515984 47 35 37
-1.534782 11.493482 90.240860 45 32 33
-1.516346 11.547614 89.156883 45 31 32
-1.480772 11.464386 87.065224 46 31 32
-1.472138 11.584126 86.557556 47 32 32
-1.472138 11.770716 86.557556 49 33 33
-1.353736 13.054572 79.595825 59 40 40
-1.346516 13.155615 79.171310 59 41 40
-1.339372 13.255585 78.751305 59 41 41
-1.346516 13.496948 79.171310 58 40 40
-1.353736 13.740899 79.595825 56 39 39
-1.346516 13.838282 79.171310 54 38 36
-1.339372 13.934629 78.751305 52 37 34
-1.339372 14.104391 78.751305 50 36 33
-1.346516 14.350282 79.171310 49 35 33
-1.379627 14.878020 81.118149 49 35 35
-1.252961 15.894182 73.670578 57 35 37
-1.158127 15.425127 68.094589 58 37 37
-1.365150 6.158995 91.917160 74 47 50
-1.348451 6.279375 90.792793 74 48 50
-1.382268 6.637478 93.069725 74 48 51
-1.365150 6.753423 91.917160 74 48 52
-0.849602 5.682766 57.204704 87 56 59
-1.377948 9.816736 92.778885 90 60 63
-1.386614 10.079734 93.362396 90 61 66
-1.390988 10.313424 93.656914 90 63 68
-1.373655 10.384285 92.489853 87 64 69
-1.352587 10.421336 91.071297 84 64 69
-1.344339 10.552913 90.515984 80 62 66
-1.340253 10.715366 90.240860 72 58 61
-1.348451 10.976623 90.792793 64 51 53
-1.344339 11.138279 90.515984 55 43 45
-1.340253 11.298953 90.240860 48 36 38
-1.336192 11.458652 89.967400 45 32 33
-1.316249 11.478673 88.624603 45 31 32
-1.285549 11.397538 86.557556 46 32 32
-1.281812 11.550452 86.305939 47 33 33
-1.281812 11.736499 86.305939 48 33 33
-1.178993 12.848544 79.383003 57 39 39
-1.178993 13.019667 79.383003 58 40 39
-1.172722 13.120626 78.960747 58 40 40
-1.166517 13.220517 78.542969 58 40 40
-1.175849 13.496948 79.171310 57 39 39
-1.182154 13.740899 79.595825 55 38 38
-1.175849 13.838282 79.171310 52 37 36
-1.166517 13.897766 78.542969 51 36 35
-1.166517 14.067078 78.542969 50 35 33
-1.178993 14.559774 79.383003 49 34 34
-1.099609 15.973455 74.038010 57 35 36
-1.099609 18.367470 74.038010 61 42 43
-1.119146 18.856232 75.353409 62 42 43
-1.110689 18.874950 74.783989 62 42 44
-1.167007 0.016580 91.917160 63 43 45
-1.163405 0.214060 91.633461 65 45 46
-1.167007 0.412865 91.917160 66 46 46
-1.167007 0.611008 91.917160 67 46 46
-1.185356 0.821873 93.362396 67 45 46
-1.181641 1.019923 93.069725 67 45 44
-1.170632 6.178123 92.202614 75 47 52
-1.181641 6.637478 93.069725 74 47 52
-1.174278 9.786154 92.489853 93 60 66
-1.181641 10.048137 93.069725 93 62 67
-1.185356 10.280993 93.362396 92 64 68
-1.170632 10.352036 92.202614 90 65 68
-1.152732 10.389466 90.792793 87 66 68
-1.142253 10.488955 89.967400 83 65 67
-1.142253 10.682896 89.967400 75 60 61
-1.149218 10.943157 90.515984 65 52 53
-1.145725 11.104424 90.240860 56 44 45
-1.142253 11.264713 89.967400 49 37 38
-1.135372 11.389625 89.425430 44 33 33
-1.111927 11.343231 87.578888 44 31 32
-1.095766 11.364406 86.305939 45 32 32
-1.092589 11.516973 86.055771 47 33 33
-1.092589 11.702479 86.055771 48 34 33
-1.005182 12.814281 79.171310 56 38 38
-1.007870 13.019667 79.383003 57 39 39
-0.999850 13.085823 78.751305 57 39 39
-0.994574 13.185635 78.335732 56 39 39
-1.005182 13.496948 79.171310 55 38 39
-1.010572 13.740899 79.595825 53 37 38
-1.002509 13.801477 78.960747 51 35 36
-0.997205 13.897766 78.542969 50 34 35
-0.994574 14.029962 78.335732 49 34 34
-0.999850 14.274153 78.751305 49 33 33
-0.994574 14.536558 78.335732 50 34 35
-0.949480 16.134398 74.783989 56 34 35
-0.942358 18.253389 74.223106 60 41 42
-0.933028 18.231077 73.488220 61 42 43
-0.937670 18.480984 73.853836 62 42 43
-0.937670 18.640188 73.853836 62 43 43
-0.928432 18.614176 73.126213 62 43 43
-0.968865 -0.775989 91.917160 59 43 45
-0.965875 -0.576063 91.633461 60 43 45
-0.965875 -0.378532 91.633461 62 43 46
-0.971874 -0.182126 92.202614 64 44 46
-0.974901 0.016684 92.489853 66 45 48
-0.971874 0.215390 92.202614 67 46 49
-0.974901 0.415438 92.489853 68 47 49
-0.974901 0.614815 92.489853 69 47 48
-0.993471 0.829700 94.251564 69 46 47
-0.990327 1.029606 93.953300 69 45 46
-0.971874 9.755762 92.202614 95 61 68
-0.977948 10.016736 92.778885 95 63 68
-0.981014 10.248763 93.069725 94 65 68
-0.965875 10.288135 91.633461 91 67 68
-0.954096 10.357791 90.515984 89 68 69
-0.939770 10.394461 89.156883 85 67 68
-0.939770 10.586653 89.156883 77 61 62
-0.948313 10.876835 89.967400 66 53 53
-0.948313 11.070774 89.967400 57 45 45
-0.942600 11.196854 89.425430 49 38 38
-0.934159 11.287628 88.624603 44 32 32
-0.915039 11.243730 86.810646 43 31 31
-0.907082 11.331465 86.055771 45 32 32
-0.904461 11.483686 85.807060 47 33 33
-0.901854 11.635030 85.559776 49 35 34
-0.834516 12.814281 79.171310 55 37 38
-0.834516 12.984948 79.171310 55 37 38
-0.827892 13.051205 78.542969 55 38 39
-0.825708 13.185635 78.335732 54 38 39
-0.834516 13.496948 79.171310 53 37 38
-0.836747 13.704159 79.383003 52 36 37
-0.830088 13.764869 78.751305 51 35 36
-0.825708 13.861096 78.335732 50 34 36
-0.825708 14.029962 78.335732 50 33 35
-0.830088 14.274153 78.751305 50 33 34
-0.830088 14.443913 78.751305 50 33 34
-0.823535 14.498303 78.129585 51 34 35
-0.819223 14.589936 77.720528 52 34 35
-0.790261 16.175140 74.972832 57 36 36
-0.768903 18.096697 72.946541 62 41 42
-0.765143 18.164682 72.589836 63 42 42
-0.768903 18.411192 72.946541 63 42 42
-0.767018 18.522930 72.767754 62 43 42
-0.775524 -1.578332 92.489853 59 44 47
-0.773116 -1.374672 92.202614 59 44 47
-0.777948 -1.183264 92.778885 59 44 47
-0.775524 -0.980201 92.489853 60 44 46
-0.775524 -0.780824 92.489853 60 43 46
-0.773116 -0.579641 92.202614 61 43 45
-0.775524 -0.382070 92.489853 62 43 46
-0.780387 -0.183839 93.069725 64 44 47
-0.780387 0.016788 93.069725 66 46 49
-0.782841 0.218099 93.362396 68 47 50
-0.782841 0.419357 93.362396 70 48 51
-0.782841 0.620615 93.362396 71 48 51
-0.792813 0.832342 94.551727 71 48 50
-0.790296 1.032874 94.251564 71 47 48
-0.787795 1.232138 93.953300 70 45 47
-0.770722 9.725558 91.917160 96 62 70
-0.775524 9.985531 92.489853 95 63 69
-0.777948 10.216736 92.778885 94 66 69
-0.765980 10.256478 91.351517 92 68 69
-0.756667 10.326308 90.240860 90 69 69
-0.740903 10.301653 88.360840 86 69 67
-0.734346 10.399279 87.578888 77 62 61
-0.747578 10.778845 89.156883 67 54 53
-0.747578 10.971038 89.156883 58 45 45
-0.740903 11.063558 88.360840 49 37 37
-0.732186 11.121634 87.321304 43 31 31
-0.723673 11.178359 86.305939 42 30 30
-0.717416 11.266154 85.559776 44 32 32
-0.715355 11.417688 85.313911 46 34 33
-0.715355 11.601596 85.313911 48 36 35
-0.662083 12.950414 78.960747 53 37 37
-0.656843 13.016769 78.335732 53 36 37
-0.655114 13.150935 78.129585 53 36 37
-0.660327 13.425346 78.751305 52 36 37
-0.662083 13.631265 78.960747 51 35 37
-0.660327 13.764869 78.751305 51 34 36
-0.655114 13.824619 78.129585 51 34 36
-0.655114 13.993041 78.129585 51 34 36
-0.658580 14.236390 78.542969 51 33 36
-0.656843 14.367693 78.335732 51 33 35
-0.653395 14.460251 77.924522 52 33 35
-0.646606 14.476248 77.114914 52 34 35
-0.639957 16.137161 76.321960 56 37 37
-0.633444 16.135765 75.545143 58 37 37
-0.631836 16.257248 75.353409 59 37 37
-0.608663 17.851725 72.589836 62 40 41
-0.608663 18.008204 72.589836 63 41 42
-0.604231 18.032415 72.061264 64 41 42
-0.592767 -4.290527 95.157829 58 40 42
-0.587122 -4.046491 94.251564 58 40 43
-0.585264 -3.831154 93.953300 58 40 43
-0.576148 -3.572101 92.489853 57 39 43
-0.570813 -3.341496 91.633461 56 39 42
-0.570813 -3.143965 91.633461 56 39 42
-0.570813 -2.946434 91.633461 56 39 42
-0.581583 -1.794480 93.362396 61 45 48
-0.581583 -1.593222 93.362396 63 46 50
-0.583418 -1.194462 93.656914 61 45 48
-0.579760 -0.986346 93.069725 62 44 47
-0.579760 -0.785720 93.069725 62 43 46
-0.577948 -0.583264 92.778885 61 43 45
-0.579760 -0.384466 93.069725 62 43 45
-0.583418 -0.184999 93.656914 64 44 47
-0.583418 0.016894 93.656914 66 46 49
-0.583418 0.218787 93.656914 68 47 50
-0.585264 0.422011 93.953300 70 48 51
-0.583418 0.622572 93.656914 72 49 52
-0.588992 0.832342 94.551727 73 50 52
-0.588992 1.036164 94.551727 72 48 50
-0.587122 1.236049 94.251564 71 47 48
-0.585264 1.434669 93.953300 71 46 48
-0.583418 1.632036 93.656914 71 45 48
-0.560434 8.743502 89.967400 92 57 69
-0.567311 9.047103 91.071297 93 57 70
-0.565576 9.215155 90.792793 95 59 70
-0.567311 9.439741 91.071297 96 62 71
-0.572580 9.725558 91.917160 96 63 71
-0.574358 9.954520 92.202614 95 65 70
-0.574358 10.153277 92.202614 95 67 70
-0.567311 10.225017 91.071297 93 69 70
-0.558741 10.263914 89.695595 91 70 69
-0.543951 10.180457 87.321304 87 68 67
-0.539193 10.278005 86.557556 78 62 61
-0.545556 10.588069 87.578888 67 53 52
-0.548793 10.840817 88.098640 57 44 44
-0.543951 10.933398 87.321304 48 36 36
-0.539193 11.024360 86.557556 41 30 30
-0.536068 11.145958 86.055771 41 29 30
-0.531446 11.233780 85.313911 44 32 32
-0.528410 11.352445 84.826408 45 34 33
-0.528410 11.535301 84.826408 47 35 34
-0.485416 12.948440 77.924522 51 35 36
-0.484145 13.082083 77.720528 51 35 36
-0.489268 13.389830 78.542969 51 35 36
-0.489268 13.559141 78.542969 51 35 36
-0.487977 13.692231 78.335732 51 34 36
-0.484145 13.752239 77.720528 51 34 36
-0.482881 13.883434 77.517601 52 34 36
-0.484145 14.087318 77.720528 52 34 36
-0.484145 14.254857 77.720528 52 34 36
-0.477890 14.236061 76.716385 52 34 35
-0.474214 14.290655 76.126259 53 34 35
-0.484145 15.762711 77.720528 52 36 36
-0.475433 15.643587 76.321960 53 35 36
-0.473001 15.727252 75.931564 55 36 37
-0.477890 16.220556 76.716385 57 37 37
-0.471794 16.176928 75.737862 58 37 37
-0.476658 16.673597 76.518669 60 37 37
-0.475433 16.795258 76.321960 60 37 37
-0.465852 16.779232 74.783989 60 38 38
-0.448892 17.566397 72.061264 63 39 40
-0.449984 17.764854 72.236603 64 41 41
-0.449984 17.920572 72.236603 65 41 41
-0.446723 17.945303 71.713142 65 41 41
-0.417046 -6.381533 102.376694 57 38 44
-0.408592 -6.035961 100.301491 56 38 43
-0.405850 -5.780686 99.628326 56 37 42
-0.401805 -5.510447 98.635353 56 37 41
-0.401805 -5.297822 98.635353 55 37 41
-0.397840 -5.035015 97.661980 55 38 41
-0.390140 -4.731112 95.771751 56 38 41
-0.387639 -4.495656 95.157829 58 39 41
-0.387639 -4.290527 95.157829 59 40 42
-0.383947 -4.046491 94.251564 59 40 43
-0.381525 -3.819068 93.656914 59 40 43
-0.376771 -3.572101 92.489853 59 40 43
-0.373282 -3.341496 91.633461 58 40 42
-0.372133 -3.134291 91.351517 58 40 42
-0.373282 -2.946434 91.633461 58 41 42
-0.379133 -1.788854 93.069725 64 47 51
-0.379133 -1.588227 93.069725 65 47 51
-0.380325 -1.190706 93.362396 64 46 49
-0.379133 -0.986346 93.069725 63 44 47
-0.379133 -0.785720 93.069725 62 43 45
-0.377948 -0.583264 92.778885 61 42 44
-0.379133 -0.384466 93.069725 61 42 44
-0.381525 -0.184999 93.656914 63 43 46
-0.381525 0.016894 93.656914 66 45 48
-0.382732 0.219479 93.953300 68 47 50
-0.382732 0.422011 93.953300 70 49 51
-0.382732 0.624543 93.953300 73 50 52
-0.385170 0.832342 94.551727 73 50 52
-0.385170 1.036164 94.551727 73 49 51
-0.383947 1.236049 94.251564 72 48 50
-0.381525 1.430143 93.656914 72 46 49
-0.380325 1.626904 93.362396 71 45 49
-0.381525 1.833929 93.656914 70 44 48
-0.367609 8.381020 90.240860 91 57 70
-0.366495 8.549562 89.967400 93 57 71
-0.366495 8.743502 89.967400 94 57 71
-0.369857 9.019436 90.792793 94 58 71
-0.368730 9.187059 90.515984 95 60 71
-0.370992 9.439741 91.071297 96 62 71
-0.373282 9.695541 91.633461 96 64 71
-0.373282 9.893072 91.633461 95 66 71
-0.373282 10.090603 91.633461 95 69 71
-0.369857 10.193748 90.792793 93 69 70
-0.363193 10.202269 89.156883 90 70 69
-0.353636 10.120922 86.810646 87 68 66
-0.350560 10.218422 86.055771 78 61 60
-0.352605 10.464593 86.557556 67 52 51
-0.354673 10.713653 87.065224 56 43 42
-0.353636 10.869460 86.810646 47 35 35
-0.350560 10.960450 86.055771 41 30 30
-0.348540 11.081716 85.559776 41 29 30
-0.345552 11.169587 84.826408 43 31 31
-0.343589 11.287942 84.344437 44 33 32
-0.343589 11.469760 84.344437 46 34 33
-0.317437 12.948440 77.924522 51 34 35
-0.315779 13.047926 77.517601 50 34 35
-0.319112 13.354500 78.335732 50 34 35
-0.319112 13.523365 78.335732 51 34 35
-0.318272 13.656199 78.129585 51 34 35
-0.314957 13.680614 77.315735 52 34 36
-0.312515 13.739937 76.716385 53 35 36
-0.313325 13.941336 76.915138 53 35 36
-0.314957 14.180614 77.315735 53 35 36
-0.310908 14.162868 76.321960 53 35 36
-0.308529 14.217744 75.737862 53 35 36
-0.316606 15.762711 77.720528 53 36 36
-0.310111 15.603476 76.126259 53 36 36
-0.312515 16.055182 76.716385 56 37 37
-0.314139 16.304819 77.114914 57 37 38
-0.309318 16.218300 75.931564 59 37 38
-0.310111 16.423988 76.126259 60 38 38
-0.318272 17.024620 78.129585 60 37 38
-0.314139 16.969755 77.114914 60 37 38
-0.293552 17.721737 72.061264 67 41 42
-0.293552 17.877077 72.061264 67 41 42
-0.291430 17.902061 71.540344 66 41 42
-0.197036 -6.403615 102.730942 57 38 42
-0.191728 -6.015638 99.963776 56 38 42
-0.189811 -5.742148 98.964142 56 38 41
-0.188554 -5.492200 98.308746 56 37 40
-0.188554 -5.280280 98.308746 56 38 40
-0.186089 -5.002106 97.023666 56 38 40
-0.183098 -4.715899 95.463799 58 39 40
-0.182511 -4.495656 95.157829 59 39 41
-0.181928 -4.276820 94.853806 60 40 42
-0.180201 -4.033685 93.953300 60 41 43
-0.179632 -3.819068 93.656914 60 41 43
-0.177394 -3.572101 92.489853 59 41 43
-0.175751 -3.341496 91.633461 58 41 43
-0.175210 -3.134291 91.351517 59 42 43
-0.177394 -0.980201 92.489853 64 45 47
-0.177948 -0.783264 92.778885 62 43 45
-0.177394 -0.581447 92.489853 61 42 44
-0.177394 -0.382070 92.489853 60 42 44
-0.178506 -0.183839 93.069725 63 43 45
-0.179067 0.016841 93.362396 66 45 48
-0.179632 0.218787 93.656914 69 47 50
-0.179632 0.420680 93.656914 71 48 51
-0.179632 0.622572 93.656914 73 49 51
-0.180201 0.827074 93.953300 74 49 51
-0.180201 1.029606 93.953300 74 49 51
-0.180201 1.232138 93.953300 74 48 50
-0.179067 1.425646 93.362396 72 47 50
-0.177394 1.611699 92.489853 71 45 49
-0.177394 1.811076 92.489853 70 44 48
-0.175751 1.991838 91.633461 69 43 47
-0.173608 5.674864 90.515984 78 51 60
-0.172556 7.579865 89.967400 84 56 64
-0.168971 7.612331 88.098640 86 56 66
-0.174139 8.432280 90.792793 93 57 71
-0.173080 8.575548 90.240860 95 57 72
-0.172556 8.743502 89.967400 96 57 72
-0.174139 9.019436 90.792793 96 59 72
-0.173608 9.187059 90.515984 96 61 72
-0.174139 9.410873 90.792793 96 63 73
-0.175210 9.665709 91.351517 96 65 73
-0.175210 9.862632 91.351517 96 68 73
-0.175210 10.059555 91.351517 96 69 73
-0.173608 10.162669 90.515984 93 69 72
-0.169474 10.111177 88.360840 90 70 70
-0.165533 10.062079 86.305939 86 67 66
-0.165053 10.218422 86.055771 77 61 60
-0.165053 10.403929 86.055771 65 51 50
-0.165533 10.620219 86.305939 53 41 39
-0.165533 10.806266 86.305939 46 34 33
-0.164576 10.928773 85.807060 42 30 30
-0.163630 11.049872 85.313911 41 29 30
-0.161771 11.106124 84.344437 43 30 31
-0.161313 11.255964 84.105499 44 31 32
-0.160857 11.404959 83.867912 45 33 33
-0.150246 13.354500 78.335732 51 34 34
-0.149851 13.487778 78.129585 52 34 36
-0.149066 13.584701 77.720528 52 35 36
-0.147140 13.574562 76.716385 53 35 36
-0.145635 13.599375 75.931564 53 35 36
-0.146384 13.833818 76.321960 54 36 37
-0.146009 14.126553 76.126259 55 36 38
-0.144526 14.145573 75.353409 55 36 38
-0.147905 15.639884 77.114914 53 36 36
-0.145264 15.523866 75.737862 53 36 36
-0.149458 17.147915 77.924522 61 37 39
-0.137877 17.523863 71.886787 66 39 42
-0.137877 17.678827 71.886787 68 41 43
-0.137877 17.833790 71.886787 68 42 43
-0.137213 17.902061 71.540344 67 42 43
0.023680 -5.995451 99.628326 56 38 40
0.023289 -5.685296 97.984299 56 38 40
0.023137 -5.438179 97.341774 56 38 39
0.023289 -5.262853 97.984299 56 38 38
0.022911 -4.969625 96.393646 57 38 39
0.022617 -4.700784 95.157829 58 39 40
0.022545 -4.481292 94.853806 59 40 42
0.022545 -4.276820 94.853806 60 40 43
0.022261 -4.020961 93.656914 60 41 44
0.022121 -3.795124 93.069725 60 42 44
0.021847 -3.549983 91.917160 59 42 43
0.021713 -3.331214 91.351517 58 42 43
0.021847 -0.775989 91.917160 62 43 45
0.021915 -0.579641 92.202614 62 42 45
0.021847 -0.379704 91.917160 62 43 45
0.021983 -0.182693 92.489853 65 44 47
0.021983 0.016684 92.489853 68 45 48
0.022052 0.216736 92.778885 70 47 50
0.022121 0.418042 93.069725 72 47 50
0.022052 0.616736 92.778885 74 48 50
0.022121 0.819296 93.069725 74 48 50
0.021983 1.013568 92.489853 74 48 50
0.022052 1.216736 92.778885 74 47 50
0.022052 1.416736 92.778885 73 47 50
0.021847 1.601720 91.917160 71 46 49
0.021713 1.788786 91.351517 70 44 48
0.021514 1.967547 90.515984 69 42 46
0.021449 5.463087 90.240860 80 51 58
0.021514 5.674864 90.515984 79 51 58
0.021384 7.385926 89.967400 85 57 64
0.021191 7.511578 89.156883 86 57 65
0.020816 7.567420 87.578888 87 57 66
0.021065 7.848822 88.624603 88 57 68
0.021580 8.432280 90.792793 93 57 72
0.021514 8.601693 90.515984 95 58 73
0.021514 8.796816 90.515984 96 59 73
0.021646 9.047103 91.071297 96 61 73
0.021580 9.215155 90.792793 97 63 73
0.021580 9.410873 90.792793 97 65 74
0.021713 9.665709 91.351517 97 67 74
0.021713 9.862632 91.351517 97 69 74
0.021646 10.028698 91.071297 96 70 74
0.021514 10.162669 90.515984 93 70 73
0.020816 10.021698 87.578888 89 68 70
0.020454 10.032914 86.055771 84 65 66
0.020395 10.188889 85.807060 76 59 59
0.020395 10.373859 85.807060 65 51 49
0.020454 10.589437 86.055771 54 41 39
0.020454 10.774943 86.055771 46 33 31
0.020336 10.897278 85.559776 43 30 29
0.020162 10.986730 84.826408 43 29 29
0.019990 11.074661 84.105499 44 30 31
0.019878 11.192551 83.631668 45 31 32
0.019878 11.372832 83.631668 47 32 33
0.018570 13.487778 78.129585 53 36 37
0.018377 13.513947 77.315735 54 36 37
0.017296 14.130774 72.767754 56 35 36
0.017956 15.484365 75.545143 54 36 36
0.017865 15.567988 75.162636 56 37 36
0.018718 17.160093 78.751305 62 38 40
0.018473 17.103025 77.720528 62 38 40
0.017045 17.481535 71.713142 66 40 42
0.017045 17.636124 71.713142 68 41 43
0.017045 17.790714 71.713142 68 42 43
0.016963 17.859028 71.368370 67 42 43
0.208377 -7.679309 87.065224 52 38 37
0.238445 -5.995451 99.628326 56 38 39
0.232973 -5.648015 97.341774 56 38 39
0.230703 -5.385210 96.393646 56 38 38
0.232211 -5.211257 97.023666 56 38 38
0.229957 -4.953542 96.081688 56 38 38
0.227746 -4.700784 95.157829 57 38 40
0.225577 -4.452840 94.251564 59 40 42
0.224863 -4.236217 93.953300 60 41 44
0.222052 -3.983264 92.778885 61 41 44
0.219311 -3.736557 91.633461 60 41 44
0.217965 -3.517314 91.071297 59 41 43
0.217299 -3.310840 90.792793 58 42 43
0.218636 -0.771214 91.351517 62 43 47
0.219311 -0.576063 91.633461 63 43 46
0.218636 -0.377368 91.351517 64 44 46
0.219311 -0.181002 91.633461 67 44 48
0.219990 0.016580 91.917160 69 45 49
0.219990 0.214723 91.917160 72 46 49
0.220673 0.414147 92.202614 73 46 49
0.220673 0.612905 92.202614 73 47 49
0.220673 0.811663 92.202614 74 47 49
0.218636 1.001094 91.351517 74 47 49
0.219311 1.201714 91.633461 74 47 49
0.219990 1.403577 91.917160 72 46 49
0.218636 1.591863 91.351517 71 46 49
0.217299 1.777846 90.792793 70 44 48
0.215323 1.955623 89.967400 70 43 46
0.213383 2.130197 89.156883 69 42 44
0.205961 3.725668 86.055771 73 44 47
0.214026 5.220950 89.425430 79 50 55
0.216636 5.479742 90.515984 80 51 58
0.217965 5.709679 91.071297 80 51 58
0.217299 5.887937 90.792793 79 50 58
0.215323 6.998047 89.967400 85 55 61
0.214673 7.170258 89.695595 86 56 62
0.214026 7.341432 89.425430 87 57 63
0.212109 7.466733 88.624603 88 58 64
0.209607 7.567420 87.578888 89 58 66
0.211478 7.825463 88.360840 91 58 69
0.215323 8.161683 89.967400 93 58 71
0.217299 8.432280 90.792793 94 59 73
0.217299 8.627998 90.792793 96 60 75
0.217299 8.823717 90.792793 97 62 75
0.217965 9.047103 91.071297 97 63 75
0.217299 9.215155 90.792793 98 64 75
0.217299 9.410873 90.792793 98 66 75
0.218636 9.665709 91.351517 98 67 75
0.218636 9.862632 91.351517 97 69 76
0.217965 10.028698 91.071297 97 70 76
0.215323 10.101077 89.967400 93 70 74
0.208377 9.962919 87.065224 89 68 71
0.205366 10.003918 85.807060 84 64 67
0.205366 10.188889 85.807060 75 58 59
0.205366 10.373859 85.807060 65 50 49
0.205961 10.589437 86.055771 55 41 39
0.205366 10.743802 85.807060 47 33 31
0.204774 10.897278 85.559776 44 30 29
0.202441 10.955429 84.584732 44 30 30
0.200160 11.012269 83.631668 46 31 31
0.199597 11.161111 83.396751 47 31 33
0.199597 11.340886 83.396751 49 33 34
0.178984 15.489560 74.783989 57 36 36
0.178984 15.650769 74.783989 59 36 37
0.181267 16.013662 75.737862 60 36 38
0.187485 17.069540 78.335732 65 39 42
0.184563 16.969755 77.114914 65 39 42
0.171221 17.285194 71.540344 66 39 42
0.170809 17.397490 71.368370 67 40 42
0.170809 17.551334 71.368370 67 41 43
0.170809 17.705181 71.368370 67 42 44
0.170400 17.816200 71.197220 66 42 44
0.403154 -8.389984 88.624603 50 35 35
0.401954 -8.174538 88.360840 51 36 36
0.398397 -7.913406 87.578888 52 37 37
0.441362 -5.629557 97.023666 56 38 38
0.437077 -5.367782 96.081688 56 38 38
0.438496 -5.177417 96.393646 56 38 38
0.435667 -4.937563 95.771751 56 38 38
0.430117 -4.670843 94.551727 57 38 39
0.424706 -4.410832 93.362396 58 40 41
0.420737 -4.170232 92.489853 60 41 44
0.415559 -3.921983 91.351517 61 42 45
0.414284 -0.572529 91.071297 65 45 48
0.414284 -0.376210 91.071297 67 45 48
0.415559 -0.180445 91.351517 68 45 48
0.416841 0.016529 91.633461 70 45 49
0.418132 0.214723 91.917160 72 45 49
0.419431 0.414147 92.202614 73 45 49
0.416841 0.609122 91.633461 73 46 48
0.418132 0.809150 91.917160 73 46 48
0.411758 0.991937 90.515984 73 45 48
0.414284 1.194342 91.071297 73 45 48
0.416841 1.399245 91.633461 71 45 48
0.414284 1.586980 91.071297 70 45 47
0.410507 1.767038 90.240860 71 44 47
0.406797 1.943842 89.425430 71 43 46
0.403154 2.117479 88.624603 70 43 44
0.391469 3.725668 86.055771 72 43 45
0.409263 5.252593 89.967400 80 50 55
0.413017 5.496500 90.792793 80 50 57
0.414284 5.709679 91.071297 80 50 58
0.414284 5.905998 91.071297 80 50 58
0.409263 6.804108 89.967400 85 54 58
0.408026 6.976905 89.695595 86 55 59
0.406797 7.148661 89.425430 87 56 60
0.405575 7.319386 89.156883 89 57 62
0.401954 7.444510 88.360840 90 58 64
0.398397 7.567420 87.578888 91 59 66
0.399576 7.779158 87.837997 92 60 69
0.406797 8.112516 89.425430 94 61 72
0.410507 8.381020 90.240860 96 61 74
0.410507 8.575548 90.240860 97 62 76
0.411758 8.796816 90.515984 98 63 77
0.414284 9.047103 91.071297 99 65 77
0.413017 9.215155 90.792793 100 66 77
0.413017 9.410873 90.792793 99 67 76
0.414284 9.636060 91.071297 99 68 76
0.414284 9.832378 91.071297 98 69 76
0.413017 9.998029 90.792793 97 70 76
0.406797 10.040227 89.425430 93 70 75
0.394902 9.933788 86.810646 90 69 72
0.390337 10.003918 85.807060 85 65 68
0.390337 10.188889 85.807060 76 58 59
0.390337 10.373859 85.807060 66 49 49
0.390337 10.558831 85.807060 56 41 39
0.389212 10.712840 85.559776 49 34 32
0.388094 10.865964 85.313911 46 31 30
0.382597 10.893358 84.105499 46 30 30
0.379373 10.981336 83.396751 47 31 32
0.378310 11.129848 83.163147 49 32 34
0.341916 15.405963 75.162636 59 36 37
0.340193 15.489560 74.783989 59 36 37
0.341052 15.690291 74.972832 60 36 37
0.344532 16.013662 75.737862 62 37 38
0.341916 16.054064 75.162636 64 38 40
0.355412 17.024620 78.129585 67 40 43
0.347189 16.795258 76.321960 67 41 44
0.341916 16.702166 75.162636 68 41 44
0.327014 16.749044 71.886787 69 41 42
0.325438 16.822544 71.540344 70 41 42
0.324655 17.243643 71.368370 68 42 43
0.323102 17.314247 71.026894 68 43 44
0.323102 17.467358 71.026894 68 44 45
0.323102 17.620468 71.026894 67 44 45
0.323102 17.773577 71.026894 66 43 45
0.322331 17.883904 70.857384 63 41 43
0.321563 17.993704 70.688675 60 39 41
0.321563 18.146084 70.688675 57 37 39
0.590673 -8.720014 88.098640 48 35 35
0.583744 -8.430042 87.065224 49 35 35
0.588925 -8.315516 87.837997 50 35 36
0.587188 -8.102197 87.578888 51 36 37
0.585461 -7.890131 87.321304 52 36 38
0.640054 -5.333262 95.463799 55 38 38
0.638002 -5.111040 95.157829 56 38 38
0.638002 -4.905912 95.157829 56 38 38
0.629926 -4.641280 93.953300 56 38 39
0.618188 -4.356039 92.202614 57 39 41
0.612482 -4.118906 91.351517 59 41 44
0.608736 -3.897995 90.792793 60 42 44
0.614372 0.016529 91.633461 71 46 49
0.618188 0.215390 92.202614 72 46 49
0.620114 0.415438 92.489853 72 45 48
0.618188 0.612905 92.202614 72 45 47
0.616274 0.809150 91.917160 72 44 47
0.606880 0.991937 90.515984 71 44 46
0.612482 1.198017 91.351517 70 44 46
0.614372 1.399245 91.633461 69 44 46
0.610603 1.586980 91.071297 69 44 46
0.603202 1.761683 89.967400 70 44 46
0.594199 4.601061 88.624603 72 43 46
0.605035 5.268558 90.240860 80 50 56
0.608736 5.496500 90.792793 81 51 57
0.612482 5.727248 91.351517 81 51 58
0.612482 5.924170 91.351517 81 51 59
0.610603 6.102317 91.071297 81 51 59
0.599568 6.763119 89.425430 85 53 57
0.597768 6.935001 89.156883 86 54 57
0.595978 7.105855 88.889946 88 56 59
0.594199 7.275688 88.624603 90 57 61
0.588925 7.400460 87.837997 92 59 64
0.585461 7.545163 87.321304 93 60 67
0.588925 7.779158 87.837997 94 61 70
0.597768 8.088155 89.156883 95 62 73
0.603202 8.355622 89.967400 97 63 75
0.605035 8.575548 90.240860 98 63 76
0.606880 8.796816 90.515984 99 64 77
0.608736 9.019436 90.792793 100 66 77
0.606880 9.187059 90.515984 101 67 77
0.606880 9.382181 90.515984 102 68 78
0.608736 9.606591 90.792793 101 69 78
0.608736 9.802310 90.792793 100 70 77
0.606880 9.967547 90.515984 98 71 76
0.595978 9.980106 88.889946 95 71 75
0.580340 9.904826 86.557556 91 70 73
0.575308 10.003918 85.807060 86 66 68
0.575308 10.188889 85.807060 77 58 59
0.573650 10.343964 85.559776 67 49 50
0.573650 10.528402 85.559776 57 40 40
0.573650 10.712840 85.559776 49 33 32
0.568733 10.803873 84.826408 47 31 30
0.559148 10.801560 83.396751 47 31 31
0.556024 10.919988 82.930847 49 32 33
0.556024 11.098759 82.930847 50 33 35
0.502668 15.528675 74.972832 62 37 39
0.509096 16.054617 75.931564 63 38 39
0.505220 16.094810 75.353409 65 39 40
0.522458 16.979935 77.924522 68 42 42
0.511714 16.795258 76.321960 69 42 43
0.503941 16.702166 75.162636 70 42 44
0.501402 16.779232 74.783989 71 43 44
0.506505 17.112864 75.545143 71 43 44
0.500142 17.058681 74.596085 71 42 43
0.489083 16.838711 72.946541 71 42 42
0.483147 16.789698 72.061264 72 42 42
0.478502 16.782104 71.368370 72 42 42
0.476212 16.854918 71.026894 72 42 43
0.477354 17.048815 71.197220 72 43 44
0.477354 17.202291 71.197220 71 44 44
0.476212 17.314247 71.026894 71 45 46
0.475076 17.425669 70.857384 71 47 47
0.475076 17.578415 70.857384 69 46 47
0.475076 17.731159 70.857384 66 45 46
0.473944 17.841322 70.688675 63 42 44
0.472819 17.950964 70.520767 59 39 42
0.472819 18.102982 70.520767 57 37 39
0.794733 -9.458140 89.695595 49 36 35
0.797141 -9.292862 89.967400 50 37 36
0.789960 -9.016951 89.156883 50 37 37
0.778274 -8.694215 87.837997 50 37 37
0.771427 -8.430042 87.065224 49 36 36
0.775978 -8.290987 87.578888 50 35 37
0.773696 -8.078366 87.321304 51 36 38
0.773696 -7.890131 87.321304 52 36 39
0.832458 -5.248875 93.953300 54 38 38
0.832458 -5.046343 93.953300 55 38 38
0.829832 -4.828532 93.656914 55 38 38
0.816946 -4.554797 92.202614 55 39 39
0.809405 -4.315829 91.351517 56 39 41
0.802002 -4.081234 90.515984 57 40 42
0.811903 0.016529 91.633461 71 47 50
0.819491 0.216061 92.489853 72 47 50
0.822052 0.416736 92.778885 72 46 49
0.819491 0.614815 92.489853 70 45 47
0.814417 0.809150 91.917160 69 44 46
0.802002 0.991937 90.515984 69 44 45
0.811903 1.201714 91.633461 68 43 44
0.811903 1.399245 91.633461 67 44 44
0.804455 1.582127 90.792793 68 44 45
0.794733 1.756361 89.695595 70 44 46
0.802002 5.284620 90.515984 80 50 55
0.806922 5.513361 91.071297 81 51 57
0.811903 5.744924 91.633461 82 51 58
0.809405 5.924170 91.351517 82 51 58
0.806922 6.102317 91.071297 81 51 58
0.792339 6.570348 89.425430 84 53 57
0.789960 6.742809 89.156883 85 53 56
0.785244 6.893599 88.624603 87 54 56
0.782907 7.063558 88.360840 89 55 57
0.780584 7.232509 88.098640 91 57 60
0.775978 7.378630 87.578888 93 58 63
0.773696 7.545163 87.321304 95 60 66
0.778274 7.779158 87.837997 96 61 70
0.787595 8.063938 88.889946 97 63 73
0.799564 8.381020 90.240860 98 63 75
0.797141 8.549562 89.967400 99 64 76
0.804455 8.823717 90.792793 101 65 77
0.806922 9.047103 91.071297 102 66 77
0.804455 9.215155 90.792793 103 68 78
0.802002 9.382181 90.515984 103 69 78
0.804455 9.606591 90.792793 103 70 79
0.804455 9.802310 90.792793 101 71 78
0.802002 9.967547 90.515984 99 72 77
0.782907 9.920701 88.360840 96 72 76
0.764700 9.876034 86.305939 93 71 74
0.758088 9.975088 85.559776 88 67 69
0.758088 10.159526 85.559776 79 59 60
0.758088 10.343964 85.559776 67 49 50
0.755910 10.498148 85.313911 57 40 40
0.753744 10.651448 85.069466 49 33 32
0.745203 10.712055 84.105499 47 30 30
0.734795 10.741217 82.930847 48 32 31
0.732748 10.889569 82.699837 50 33 34
0.730713 11.037099 82.470116 51 34 36
0.667656 13.983136 75.353409 64 38 42
0.647923 14.200383 73.126213 65 39 43
0.664284 15.528675 74.972832 65 40 41
0.674504 16.095783 76.126259 65 40 41
0.667656 16.094810 75.353409 66 40 41
0.690437 16.979935 77.924522 69 42 42
0.674504 16.752193 76.126259 70 43 43
0.665966 16.702166 75.162636 70 44 44
0.662611 16.779232 74.783989 71 45 44
0.665966 17.026217 75.162636 72 45 44
0.659290 17.015928 74.409126 72 44 43
0.647923 16.880186 73.126213 72 44 42
0.638487 16.789698 72.061264 72 43 41
0.630831 16.741859 71.197220 72 43 42
0.627820 16.814692 70.857384 72 43 42
0.627820 16.967436 70.857384 72 43 43
0.629322 17.161137 71.026894 72 45 45
0.626325 17.231798 70.688675 72 45 46
0.626325 17.384180 70.688675 72 47 47
0.626325 17.536560 70.688675 70 46 46
0.626325 17.688942 70.688675 66 44 46
0.624838 17.798944 70.520767 63 41 44
0.623357 17.908424 70.353653 60 38 41
0.623357 18.060083 70.353653 57 37 39
0.991081 -9.680741 89.967400 50 36 35
0.988087 -9.458140 89.695595 51 38 37
0.991081 -9.292862 89.967400 52 39 38
0.985110 -9.044110 89.425430 53 40 39
0.967623 -8.694215 87.837997 51 38 38
0.959110 -8.430042 87.065224 50 36 37
0.964769 -8.290987 87.578888 51 35 38
0.961931 -8.078366 87.321304 53 36 39
0.961931 -7.890131 87.321304 54 37 40
1.012559 -4.936980 91.917160 54 39 38
1.003241 -4.695229 91.071297 54 39 39
1.006328 -4.512753 91.351517 55 40 40
1.003241 -4.302590 91.071297 56 40 41
0.976288 -3.040730 88.624603 61 41 45
1.015704 0.414147 92.202614 72 48 50
1.006328 0.607248 91.351517 69 46 47
1.003241 0.801704 91.071297 68 44 46
0.994093 0.988922 90.240860 67 44 46
1.003241 1.194342 91.071297 67 43 45
1.003241 1.390661 91.071297 67 43 44
0.997124 1.577303 90.515984 68 44 45
0.976288 1.735389 88.624603 69 44 46
0.964769 2.092494 87.578888 72 43 46
0.945250 3.899871 85.807060 70 43 45
0.997124 5.089499 90.515984 78 49 53
1.003241 5.317041 91.071297 80 51 55
1.009434 5.547393 91.633461 81 52 57
1.012559 5.762711 91.917160 82 52 58
1.009434 5.942455 91.633461 82 52 58
1.003241 6.102317 91.071297 81 51 57
0.988087 6.590198 89.695595 84 53 57
0.982152 6.742809 89.156883 85 53 56
0.976288 6.893599 88.624603 86 52 55
0.970495 7.042598 88.098640 88 53 56
0.967623 7.211111 87.837997 91 55 60
0.964769 7.378630 87.578888 94 57 63
0.961931 7.545163 87.321304 95 59 67
0.967623 7.779158 87.837997 97 61 70
0.979212 8.063938 88.889946 98 62 73
0.994093 8.381020 90.240860 100 63 75
0.991081 8.549562 89.967400 101 64 76
1.003241 8.850783 91.071297 103 66 77
1.000173 9.019436 90.792793 104 67 77
1.000173 9.215155 90.792793 105 69 78
1.000173 9.410873 90.792793 106 71 79
1.000173 9.606591 90.792793 105 72 80
1.000173 9.802310 90.792793 103 73 79
0.994093 9.937251 90.240860 101 74 78
0.967623 9.861999 87.837997 98 74 76
0.947990 9.847407 86.055771 96 74 76
0.939818 9.946424 85.313911 92 71 72
0.939818 10.130332 85.313911 80 61 61
0.939818 10.314240 85.313911 67 50 50
0.937125 10.468067 85.069466 57 40 40
0.931785 10.590756 84.584732 50 33 33
0.918698 10.621785 83.396751 47 30 30
0.908491 10.681543 82.470116 48 32 32
0.905974 10.829240 82.241669 50 34 34
0.903471 10.976120 82.014481 52 35 36
0.849498 12.481442 77.114914 58 38 40
0.856169 12.747004 77.720528 58 38 39
0.858416 12.948440 77.924522 59 37 39
0.827991 13.947736 75.162636 66 39 42
0.821750 15.450642 74.596085 68 41 43
0.840763 16.137161 76.321960 67 41 43
0.858416 16.979935 77.924522 69 43 42
0.840763 16.795258 76.321960 69 44 43
0.830093 16.744556 75.353409 70 45 43
0.825901 16.821604 74.972832 71 45 44
0.825901 16.983221 74.972832 72 45 44
0.819691 17.015928 74.409126 72 45 43
0.805558 16.880186 73.126213 72 44 42
0.778706 16.927036 70.688675 72 44 43
0.778706 17.079418 70.688675 72 45 45
0.778706 17.231798 70.688675 72 45 45
0.776857 17.342888 70.520767 72 46 46
0.776857 17.494905 70.520767 69 44 46
0.776857 17.646925 70.520767 66 42 45
0.775016 17.756767 70.353653 63 40 43
0.773184 17.866089 70.187332 60 37 41
1.199560 -10.192162 91.071297 49 35 34
1.188622 -9.904695 90.240860 50 36 35
1.185020 -9.680741 89.967400 51 37 36
1.181440 -9.458140 89.695595 52 39 38
1.181440 -9.264787 89.695595 53 40 39
1.177881 -9.044110 89.425430 52 39 40
1.160406 -8.720014 88.098640 51 38 39
1.146794 -8.430042 87.065224 50 36 37
1.153559 -8.290987 87.578888 51 35 37
1.150167 -8.078366 87.321304 53 36 38
1.150167 -7.890131 87.321304 55 37 40
1.140107 -7.634532 86.557556 56 37 41
1.167333 -3.231775 88.624603 62 41 45
1.163859 -3.031680 88.360840 63 42 46
1.150167 -2.619543 87.321304 66 44 48
1.143440 -2.417089 86.810646 66 44 48
1.203251 0.410325 91.351517 71 49 50
1.188622 0.599865 90.240860 69 47 48
1.192246 0.796815 90.515984 67 45 46
1.185020 0.985926 89.967400 66 44 46
1.188622 1.183451 90.240860 66 43 45
1.192246 1.382181 90.515984 66 43 45
1.181440 1.563007 89.695595 67 44 45
1.150167 1.709869 87.321304 68 44 46
1.130221 3.899871 85.807060 71 45 47
1.126964 4.073071 85.559776 71 45 47
1.192246 5.089499 90.515984 79 50 54
1.199560 5.317041 91.071297 80 52 56
1.206965 5.547393 91.633461 82 53 58
1.214462 5.780607 92.202614 82 53 59
1.206965 5.942455 91.633461 82 52 58
1.181440 6.590198 89.695595 85 53 57
1.174344 6.742809 89.156883 85 53 56
1.167333 6.893599 88.624603 87 52 56
1.160406 7.042598 88.098640 88 52 57
1.156972 7.211111 87.837997 91 55 61
1.153559 7.378630 87.578888 94 57 65
1.150167 7.545163 87.321304 96 60 68
1.156972 7.779158 87.837997 98 62 71
1.174344 8.088155 89.156883 100 63 74
1.192246 8.406571 90.515984 101 64 76
1.188622 8.575548 90.240860 102 65 77
1.203251 8.878016 91.351517 104 66 77
