ply
format ascii 1.0
element vertex 1247
property float x
property float y
property float z
property uchar red
property uchar green
property uchar blue
end_header
3.082912 -0.546067 64.682442 114 63 69
3.082912 -0.406633 64.682442 115 63 67
3.056278 -0.264891 64.123634 116 63 68
3.030100 -0.125577 63.574394 117 63 68
3.017178 0.147879 63.303288 116 63 69
3.017178 0.284340 63.303288 115 62 69
3.004367 0.419014 63.034485 113 61 68
3.023625 0.558452 63.438553 112 60 67
3.043133 0.699689 63.847832 110 59 65
3.056278 0.840941 64.123634 110 59 64
3.069537 0.983418 64.401825 110 59 64
3.069537 1.122246 64.401825 111 61 65
3.076210 1.263816 64.541832 111 64 66
3.089643 1.409073 64.823669 113 66 69
3.089643 1.548811 64.823669 115 70 73
3.082912 1.684870 64.682442 118 72 77
3.082912 1.824304 64.682442 121 75 79
3.082912 1.963737 64.682442 124 76 80
3.089643 2.107763 64.823669 126 76 81
3.096404 2.252419 64.965523 127 76 82
3.096404 2.392463 64.965523 128 75 82
3.110015 3.387594 65.251083 130 74 75
3.103194 3.520516 65.107986 130 75 76
3.096404 3.652857 64.965523 130 76 76
3.096404 3.792900 64.965523 130 76 77
3.103194 3.941569 65.107986 129 76 77
3.103194 4.081920 65.107986 128 76 78
3.076210 4.185555 64.541832 127 76 78
3.023625 4.250760 63.438553 126 76 79
3.004367 4.359566 63.034485 125 75 78
2.998001 4.485923 62.900936 125 74 77
3.049691 4.701197 63.985435 125 74 76
3.030100 4.808042 63.574394 125 74 75
3.010759 4.913522 63.168602 126 75 75
3.010759 5.049693 63.168602 126 74 74
3.004367 5.174852 63.034485 126 73 73
3.004367 5.310733 63.034485 125 71 73
2.998001 5.435075 62.900936 125 70 73
3.056278 5.955411 64.123634 123 67 72
3.043133 6.067431 63.847832 122 68 72
3.030100 6.178492 63.574394 122 69 72
3.043133 6.342700 63.847832 122 70 73
3.043133 6.480334 63.847832 123 71 74
3.030100 6.589626 63.574394 126 73 76
3.023625 6.712298 63.438553 128 75 78
3.023625 6.849050 63.438553 130 76 80
3.036602 7.015784 63.710819 131 77 81
3.030100 7.137806 63.574394 132 77 81
3.017178 7.243828 63.303288 132 75 81
3.010759 7.364586 63.168602 131 74 80
3.010759 7.500756 63.168602 130 73 79
2.998001 7.604567 62.900936 129 72 78
2.991663 7.723796 62.767956 127 71 77
2.979067 7.826012 62.503666 125 70 76
2.972808 7.944024 62.372356 123 68 74
2.991663 8.129716 62.767956 120 67 72
2.985352 8.247585 62.635532 118 65 69
2.991663 8.400329 62.767956 117 66 68
2.991663 8.535635 62.767956 119 68 68
2.985352 8.652649 62.635532 120 69 69
3.004367 9.523047 63.034485 129 77 94
3.004367 9.930691 63.034485 136 82 105
3.017178 10.109500 63.303288 136 83 105
3.023625 10.267854 63.438553 128 75 95
3.023625 10.404606 63.438553 121 69 86
3.023625 10.541358 63.438553 116 64 79
3.023625 10.678110 63.438553 112 60 73
3.023625 10.814862 63.438553 116 63 74
3.017178 10.928264 63.303288 123 71 80
3.023625 11.088367 63.438553 124 73 81
3.023625 11.225119 63.438553 121 70 76
3.023625 11.361871 63.438553 117 67 72
3.030100 11.523245 63.574394 115 67 72
3.010759 11.585863 63.168602 115 67 73
3.017178 11.883487 63.303288 116 68 74
3.030100 12.071425 63.574394 116 69 75
3.023625 12.182384 63.438553 117 69 76
3.036602 12.372007 63.710819 117 69 76
3.030100 12.482560 63.574394 116 68 75
3.017178 12.565790 63.303288 116 67 74
3.004367 12.648314 63.034485 114 66 73
3.017178 12.838711 63.303288 113 66 71
3.023625 13.002896 63.438553 111 65 69
2.991663 13.000751 62.767956 109 65 68
2.998001 13.163889 62.900936 107 64 67
2.998001 13.299482 62.900936 105 63 66
2.979067 13.350222 62.503666 103 62 64
2.998001 13.706262 62.900936 98 59 60
2.979067 13.754433 62.503666 96 58 58
3.056278 14.387377 64.123634 95 57 57
3.023625 14.370418 63.438553 95 56 55
3.062893 14.695575 64.262428 95 55 53
3.103194 15.029288 65.107986 95 54 52
3.089643 15.103396 64.823669 95 54 52
3.338728 -8.800552 67.018608 47 33 30
3.338728 -8.656082 67.018608 48 32 31
3.316271 -8.454360 66.567810 48 31 31
3.294113 -8.255333 66.123032 50 32 32
3.346282 -8.241278 67.170235 51 32 33
3.331209 -8.060010 66.867661 53 33 34
3.301466 -7.845189 66.270630 56 34 36
3.279505 -7.651096 65.829803 59 36 38
3.272249 -7.492577 65.684166 62 38 39
3.361492 -6.242374 67.475548 81 46 50
3.369149 -6.110807 67.629250 83 47 51
3.361492 -5.951465 67.475548 85 49 52
3.369149 -5.819236 67.629250 86 51 53
3.361492 -5.660556 67.475548 87 52 54
3.369149 -5.527664 67.629250 88 52 55
3.301466 -1.988046 66.270630 101 59 59
3.279505 -1.832915 65.829803 102 60 62
3.265026 -1.683542 65.539169 103 61 63
3.250674 -1.535483 65.251083 104 61 65
3.243545 -1.391764 65.107986 106 61 66
3.250674 -1.254164 65.251083 107 61 66
3.265026 -1.118421 65.539169 108 61 66
3.257834 -0.974988 65.394806 109 60 66
3.243545 -0.830361 65.107986 109 60 66
3.236448 -0.688500 64.965523 111 61 68
3.222346 -0.546067 64.682442 114 62 68
3.215341 -0.405749 64.541832 115 62 67
3.187622 -0.264320 63.985435 115 62 67
3.153639 -0.125042 63.303288 116 63 68
3.140248 0.011370 63.034485 116 64 69
3.140248 0.147252 63.034485 116 64 70
3.140248 0.283133 63.034485 115 63 70
3.126970 0.417242 62.767956 114 62 69
3.153639 0.557261 63.303288 113 61 67
3.173941 0.698188 63.710819 112 60 66
3.180767 0.837324 63.847832 111 60 65
3.208366 0.983418 64.401825 112 62 65
3.215341 1.124686 64.541832 113 63 66
3.222346 1.266570 64.682442 113 64 67
3.236448 1.412156 64.965523 115 67 70
3.229381 1.548811 64.823669 117 70 75
3.222346 1.684870 64.682442 120 74 78
3.215341 1.820338 64.541832 123 76 80
3.215341 1.959468 64.541832 126 77 82
3.222346 2.103171 64.682442 128 77 83
3.229381 2.247501 64.823669 129 76 83
3.222346 2.382038 64.682442 129 75 83
3.215341 2.515990 64.541832 128 74 81
3.229381 2.806453 64.823669 127 71 77
3.236448 3.372769 64.965523 130 73 76
3.229381 3.505143 64.823669 130 74 76
3.229381 3.644881 64.823669 130 75 77
3.229381 3.784619 64.823669 130 75 78
3.236448 3.932944 64.965523 129 75 79
3.243545 4.081920 65.107986 128 75 80
3.215341 4.185555 64.541832 127 75 81
3.173941 4.269003 63.710819 126 75 81
3.153639 4.378157 63.303288 126 75 81
3.153639 4.514617 63.303288 126 75 81
3.208366 4.731791 64.401825 127 75 80
3.187622 4.839128 63.985435 127 75 78
3.160378 4.934520 63.438553 127 75 76
3.160378 5.071272 63.438553 128 74 75
3.153639 5.196920 63.303288 127 73 74
3.146929 5.322033 63.168602 127 72 74
3.140248 5.446615 63.034485 126 71 73
3.133595 5.570668 62.900936 125 70 73
3.173941 5.917072 63.710819 123 68 72
3.167145 6.041446 63.574394 123 69 72
3.153639 6.152144 63.303288 123 70 72
3.173941 6.329089 63.710819 124 72 74
3.173941 6.466428 63.710819 126 74 76
3.160378 6.575546 63.438553 128 75 77
3.153639 6.697986 63.303288 129 77 79
3.153639 6.834446 63.303288 131 78 81
3.167145 7.000761 63.574394 133 79 83
3.160378 7.122554 63.438553 135 79 85
3.146929 7.228416 63.168602 136 79 86
3.140248 7.348950 63.034485 136 80 86
3.140248 7.484831 63.034485 135 79 85
3.133595 7.604567 62.900936 132 76 83
3.126970 7.723796 62.767956 129 74 81
3.113803 7.826012 62.503666 127 72 79
3.113803 7.960748 62.503666 124 70 76
3.126970 8.129716 62.767956 120 67 72
3.120373 8.247585 62.635532 116 64 68
3.126970 8.400329 62.767956 116 64 67
3.126970 8.535635 62.767956 117 66 68
3.120373 8.652649 62.635532 119 67 69
3.140248 9.523047 63.034485 124 72 90
3.146929 9.815650 63.168602 127 73 97
3.140248 9.930691 63.034485 137 83 107
3.153639 10.109500 63.303288 139 85 109
3.160378 10.267854 63.438553 130 76 98
3.160378 10.404606 63.438553 122 69 88
3.153639 10.518882 63.303288 117 63 80
3.153639 10.655342 63.303288 112 59 73
3.160378 10.814862 63.438553 117 64 75
3.153639 10.928264 63.303288 126 73 81
3.160378 11.088367 63.438553 126 75 81
3.160378 11.225119 63.438553 121 71 75
3.160378 11.361871 63.438553 117 68 71
3.160378 11.498623 63.438553 115 67 70
3.146929 11.585863 63.168602 115 67 71
3.153639 11.883487 63.303288 116 69 73
3.167145 12.071425 63.574394 117 69 75
3.160378 12.182384 63.438553 117 69 75
3.173941 12.372007 63.710819 117 69 75
3.167145 12.482560 63.574394 116 68 74
3.160378 12.592640 63.438553 116 67 74
3.146929 12.675224 63.168602 115 67 72
3.160378 12.866144 63.438553 114 66 70
3.160378 13.002896 63.438553 112 66 69
3.140248 13.055957 63.034485 110 65 68
3.140248 13.191837 63.034485 108 65 68
3.133595 13.299482 62.900936 106 64 67
3.113803 13.350222 62.503666 104 63 64
3.133595 13.570668 62.900936 101 61 62
3.133595 13.706262 62.900936 99 59 61
3.120373 13.783450 62.635532 97 58 59
3.180767 14.325496 63.847832 96 57 56
3.153639 14.339777 63.303288 96 56 55
3.180767 14.600764 63.847832 96 55 53
3.236448 14.996402 64.965523 96 54 52
3.229381 15.103396 64.823669 97 54 52
3.475353 -8.780731 66.867661 48 32 31
3.475353 -8.636587 66.867661 49 32 31
3.444323 -8.416617 66.270630 49 31 32
3.421412 -8.218724 65.829803 50 31 32
3.475353 -8.204154 66.867661 52 32 33
3.467543 -8.041898 66.717400 54 32 34
3.429015 -7.810321 65.976097 57 33 35
3.413842 -6.501426 65.684166 77 45 49
3.514935 -6.256593 67.629250 82 45 49
3.514935 -6.110807 67.629250 84 46 50
3.506947 -5.951465 67.475548 87 48 52
3.514935 -5.819236 67.629250 89 50 54
3.506947 -5.660556 67.475548 90 52 55
3.514935 -5.527664 67.629250 90 53 56
3.413842 -1.970453 65.684166 103 60 61
3.413842 -1.828860 65.684166 104 61 63
3.413842 -1.687267 65.684166 104 61 64
3.391333 -1.535483 65.251083 105 61 66
3.383896 -1.391764 65.107986 107 61 67
3.398803 -1.256926 65.394806 108 61 67
3.413842 -1.120895 65.684166 109 61 67
3.406306 -0.977140 65.539169 109 60 66
3.391333 -0.832186 65.251083 108 57 64
3.376492 -0.688500 64.965523 111 60 66
3.361779 -0.546067 64.682442 114 62 67
3.361779 -0.406633 64.682442 115 62 67
3.325553 -0.264320 63.985435 115 62 67
3.290099 -0.125042 63.303288 116 63 68
3.276129 0.011370 63.034485 117 64 69
3.283099 0.147565 63.168602 117 65 71
3.283099 0.283735 63.168602 117 65 72
3.269188 0.418126 62.900936 116 63 70
3.297130 0.558452 63.438553 114 62 68
3.318401 0.699689 63.847832 114 62 67
3.325553 0.839128 63.985435 114 62 66
3.347194 0.983418 64.401825 115 63 66
3.354471 1.124686 64.541832 115 65 66
3.361779 1.266570 64.682442 115 66 67
3.376492 1.412156 64.965523 116 67 70
3.369119 1.548811 64.823669 118 70 74
3.354471 1.681208 64.541832 120 73 77
3.354471 1.820338 64.541832 124 76 80
3.347194 1.955218 64.401825 126 77 82
3.347194 2.094047 64.401825 129 77 83
3.361779 2.242604 64.682442 130 77 83
3.354471 2.376860 64.541832 130 76 83
3.347194 2.510532 64.401825 129 74 81
3.354471 2.655121 64.541832 126 71 77
3.354471 2.794251 64.541832 125 69 75
3.347194 2.927018 64.401825 126 70 75
3.347194 3.065847 64.401825 128 70 76
3.354471 3.211642 64.541832 129 71 76
3.361779 3.358073 64.682442 130 71 76
3.361779 3.497506 64.682442 131 72 77
3.361779 3.636940 64.682442 130 72 77
3.347194 3.759990 64.401825 129 73 78
3.361779 3.915807 64.682442 128 74 79
3.369119 4.064095 64.823669 128 74 81
3.347194 4.176476 64.401825 127 75 82
3.311280 4.269003 63.710819 127 76 82
3.297130 4.387512 63.438553 127 76 83
3.311280 4.543681 63.710819 128 76 82
3.339949 4.721549 64.262428 128 76 81
3.332736 4.849580 64.123634 128 77 79
3.325553 4.977059 63.985435 129 76 77
3.318401 5.103990 63.847832 129 76 76
3.304190 5.219177 63.574394 129 75 76
3.297130 5.344777 63.438553 128 73 74
3.283099 5.458203 63.168602 128 72 73
3.283099 5.594373 63.168602 126 71 72
3.290099 5.742762 63.303288 125 71 72
3.311280 5.917072 63.710819 125 71 73
3.304190 6.041446 63.574394 124 71 73
3.297130 6.165289 63.438553 124 71 73
3.311280 6.329089 63.710819 126 75 75
3.304190 6.452581 63.574394 128 78 78
3.297130 6.575546 63.438553 128 78 78
3.290099 6.697986 63.303288 129 79 79
3.290099 6.834446 63.303288 132 80 81
3.297130 6.985802 63.438553 134 81 84
3.290099 7.107368 63.303288 137 82 86
3.276129 7.213069 63.034485 139 83 88
3.269188 7.333380 62.900936 141 85 90
3.269188 7.468974 62.900936 140 84 90
3.262276 7.588490 62.767956 136 80 87
3.255394 7.707501 62.635532 132 77 83
3.248540 7.826012 62.503666 129 74 80
3.248540 7.960748 62.503666 125 72 77
3.255394 8.112564 62.635532 120 68 72
3.248540 8.230222 62.503666 116 64 68
3.255394 8.382607 62.635532 115 63 67
3.255394 8.517628 62.635532 117 65 68
3.262276 8.670941 62.767956 118 66 69
3.283099 9.543309 63.168602 120 68 86
3.283099 9.815650 63.168602 122 69 93
3.283099 9.951820 63.168602 135 82 107
3.297130 10.131102 63.438553 139 86 110
3.290099 10.245960 63.303288 129 76 98
3.297130 10.404606 63.438553 123 69 89
3.290099 10.518882 63.303288 119 65 82
3.290099 10.655342 63.303288 116 62 75
3.304190 10.838020 63.574394 118 64 74
3.290099 10.928264 63.303288 124 72 79
3.297130 11.088367 63.438553 125 74 80
3.297130 11.225119 63.438553 121 72 74
3.297130 11.361871 63.438553 117 68 70
3.297130 11.498623 63.438553 116 67 69
3.283099 11.585863 63.168602 115 68 70
3.290099 11.747026 63.303288 116 68 71
3.297130 11.908879 63.438553 116 69 72
3.311280 12.097329 63.710819 117 69 74
3.304190 12.208470 63.574394 116 68 74
3.318401 12.398614 63.847832 115 67 73
3.311280 12.509347 63.710819 115 68 72
3.297130 12.592640 63.438553 115 68 72
3.290099 12.702250 63.303288 115 68 71
3.311280 12.921364 63.710819 114 67 69
3.304190 13.030740 63.574394 113 67 68
3.276129 13.055957 63.034485 111 66 68
3.283099 13.219905 63.168602 109 65 67
3.269188 13.299482 62.900936 107 64 67
3.248540 13.350222 62.503666 105 63 66
3.269188 13.570668 62.900936 102 61 64
3.269188 13.706262 62.900936 100 60 62
3.255394 13.783450 62.635532 98 58 60
3.276129 14.007124 63.034485 97 57 59
3.304190 14.264145 63.574394 97 57 57
3.283099 14.309267 63.168602 97 56 56
3.290099 14.476237 63.303288 97 55 54
3.369119 14.963658 64.823669 97 55 53
3.361779 15.070491 64.682442 98 55 53
3.603266 -8.597857 66.567810 50 32 32
3.571237 -8.379210 65.976097 50 31 33
3.547586 -8.182438 65.539169 51 31 33
3.595205 -8.149093 66.418884 52 31 33
3.595205 -8.005917 66.418884 55 32 34
3.555435 -7.775762 65.684166 57 33 35
3.508857 -7.254683 64.823669 66 39 40
3.501213 -7.099443 64.682442 69 41 42
3.531993 -6.458560 65.251083 77 45 47
3.531993 -6.317900 65.251083 78 44 47
3.652401 -6.242374 67.475548 82 43 47
3.652401 -6.096920 67.475548 85 44 48
3.644119 -5.937970 67.322548 88 48 51
3.652401 -5.806010 67.475548 91 50 53
3.644119 -5.647720 67.322548 92 52 55
3.660721 -5.527664 67.629250 92 53 56
3.652401 -5.369647 67.475548 92 53 57
3.555435 -1.970453 65.684166 105 60 62
3.563318 -1.832915 65.829803 105 61 64
3.563318 -1.691008 65.829803 104 60 64
3.539772 -1.538865 65.394806 106 61 66
3.539772 -1.397895 65.394806 107 61 67
3.539772 -1.256926 65.394806 109 61 68
3.563318 -1.123380 65.829803 110 61 68
3.555435 -0.979302 65.684166 109 60 66
3.539772 -0.834019 65.394806 109 58 65
3.524247 -0.690010 65.107986 111 60 66
3.508857 -0.547259 64.823669 114 63 68
3.508857 -0.407521 64.823669 115 63 68
3.470965 -0.264891 64.123634 116 63 68
3.433882 -0.125309 63.438553 117 64 68
3.426560 0.011419 63.303288 118 65 69
3.433882 0.148195 63.438553 119 66 71
3.419270 0.283735 63.168602 119 67 72
3.412010 0.419014 63.034485 117 65 70
3.441235 0.559648 63.574394 116 64 68
3.456036 0.699689 63.847832 116 64 67
3.463484 0.839128 63.985435 115 64 66
3.478477 0.981289 64.262428 115 64 66
3.486023 1.122246 64.401825 114 64 65
3.501213 1.266570 64.682442 115 64 66
3.508857 1.409073 64.823669 116 66 68
3.501213 1.545437 64.682442 118 69 71
3.493601 1.681208 64.541832 120 71 74
3.493601 1.820338 64.541832 123 74 78
3.486023 1.955218 64.401825 126 76 82
3.486023 2.094047 64.401825 129 77 83
3.493601 2.237729 64.541832 130 77 83
3.478477 2.366570 64.262428 131 77 83
3.478477 2.505098 64.262428 130 75 82
3.486023 2.649361 64.401825 126 70 77
3.486023 2.788190 64.401825 124 67 75
3.478477 2.920683 64.262428 125 68 75
3.478477 3.059211 64.262428 128 70 78
3.478477 3.197739 64.262428 132 72 79
3.486023 3.343504 64.401825 133 73 80
3.486023 3.482333 64.401825 132 73 79
3.486023 3.621161 64.401825 131 72 79
3.463484 3.735680 63.985435 129 72 80
3.486023 3.898819 64.401825 128 73 81
3.493601 4.046425 64.541832 128 74 82
3.463484 4.149473 63.985435 128 75 83
3.433882 4.250760 63.438553 128 76 84
3.433882 4.387512 63.438553 129 77 84
3.441235 4.533952 63.574394 129 78 83
3.470965 4.711351 64.123634 130 78 82
3.470965 4.849580 64.123634 130 78 80
3.470965 4.987809 64.123634 130 78 78
3.463484 5.114990 63.985435 129 77 76
3.456036 5.241625 63.847832 130 76 75
3.448619 5.367716 63.710819 129 75 75
3.433882 5.481529 63.438553 128 74 74
3.433882 5.618281 63.438553 127 73 74
3.441235 5.767356 63.574394 126 72 74
3.463484 5.942576 63.985435 125 72 74
3.448619 6.054411 63.710819 125 72 73
3.433882 6.165289 63.438553 125 73 73
3.441235 6.315536 63.574394 126 76 76
3.441235 6.452581 63.574394 128 79 78
3.426560 6.561525 63.303288 129 81 79
3.426560 6.697986 63.303288 131 82 80
3.426560 6.834446 63.303288 134 84 83
3.426560 6.970907 63.303288 137 85 87
3.419270 7.092246 63.168602 139 85 89
3.404781 7.197787 62.900936 140 86 90
3.397583 7.317876 62.767956 142 87 92
3.397583 7.453183 62.767956 142 86 92
3.390415 7.572480 62.635532 137 82 88
3.390415 7.707501 62.635532 132 78 83
3.376169 7.809570 62.372356 128 76 80
3.376169 7.944024 62.372356 125 73 77
3.383277 8.095485 62.503666 121 69 73
3.383277 8.230222 62.503666 118 66 70
3.383277 8.364959 62.503666 118 65 69
3.383277 8.499696 62.503666 119 66 69
3.397583 8.670941 62.767956 119 67 69
3.433882 9.447341 63.438553 118 68 79
3.426560 9.563658 63.303288 119 68 83
3.419270 9.679480 63.168602 118 66 85
3.426560 9.836578 63.303288 120 67 89
3.419270 9.951820 63.168602 129 77 99
3.433882 10.131102 63.438553 134 81 103
3.426560 10.245960 63.303288 128 76 96
3.433882 10.404606 63.438553 124 71 88
3.426560 10.518882 63.303288 122 68 83
3.426560 10.655342 63.303288 119 65 77
3.433882 10.814862 63.438553 119 65 75
3.426560 10.928264 63.303288 121 69 76
3.433882 11.088367 63.438553 122 71 77
3.433882 11.225119 63.438553 120 70 74
3.426560 11.337645 63.303288 118 68 71
3.433882 11.498623 63.438553 117 68 70
3.419270 11.585863 63.168602 117 69 71
3.426560 11.747026 63.303288 117 69 71
3.433882 11.908879 63.438553 118 70 72
3.448619 12.097329 63.710819 117 70 73
3.441235 12.208470 63.574394 116 69 73
3.456036 12.398614 63.847832 115 68 72
3.448619 12.509347 63.710819 115 68 71
3.433882 12.592640 63.438553 115 69 71
3.426560 12.702250 63.303288 115 69 70
3.441235 12.893695 63.574394 114 68 69
3.433882 13.002896 63.438553 113 68 68
3.404781 13.028296 62.900936 112 66 67
3.412010 13.191837 63.034485 110 66 67
3.397583 13.271364 62.767956 108 65 68
3.376169 13.322175 62.372356 106 63 67
3.390415 13.513408 62.635532 103 61 65
3.404781 13.706262 62.900936 101 60 63
3.383277 13.754433 62.503666 99 59 61
3.397583 13.947897 62.767956 98 58 60
3.433882 14.233665 63.438553 98 57 58
3.419270 14.309267 63.168602 98 57 57
3.426560 14.476237 63.303288 99 57 56
3.516535 14.996402 64.965523 99 56 56
3.501213 15.070491 64.682442 101 57 57
3.755183 -8.617179 66.717400 51 33 33
3.721730 -8.397872 66.123032 51 32 33
3.688867 -8.182438 65.539169 52 32 33
3.755183 -8.185718 66.717400 53 32 34
3.746764 -8.023867 66.567810 55 33 35
3.697028 -7.775762 65.684166 58 34 36
3.656579 -7.270557 64.965523 66 39 41
3.648595 -7.114944 64.823669 68 41 42
3.624852 -6.929815 64.401825 71 43 44
3.664598 -6.444396 65.107986 76 43 45
3.664598 -6.304045 65.107986 77 43 44
3.730037 -6.273760 66.270630 78 42 44
3.789244 -6.228219 67.322548 80 41 44
3.780671 -6.069332 67.170235 84 43 46
3.780671 -5.924535 67.170235 88 46 49
3.797856 -5.806010 67.475548 91 50 52
3.780671 -5.634943 67.170235 92 52 54
3.797856 -5.515101 67.475548 93 53 56
3.789244 -5.357471 67.322548 93 53 58
3.697028 -1.970453 65.684166 106 59 61
3.705225 -1.832915 65.829803 106 59 63
3.705225 -1.691008 65.829803 105 58 64
3.688867 -1.542262 65.539169 107 59 65
3.680742 -1.397895 65.394806 108 60 67
3.688867 -1.259701 65.539169 110 61 69
3.697028 -1.120895 65.684166 111 61 69
3.688867 -0.977140 65.539169 112 61 68
3.680742 -0.834019 65.394806 112 61 67
3.640646 -0.406633 64.682442 116 64 68
3.609194 -0.264891 64.123634 117 65 69
3.570634 -0.125309 63.438553 118 65 69
3.570634 0.011443 63.438553 118 66 70
3.563020 0.147879 63.303288 120 67 71
3.555440 0.283735 63.168602 120 68 71
3.547891 0.419014 63.034485 118 67 70
3.578280 0.559648 63.574394 117 65 67
3.593670 0.699689 63.847832 117 65 66
3.593670 0.837324 63.847832 116 65 65
3.609194 0.979169 64.123634 115 64 65
3.617006 1.119817 64.262428 114 63 64
3.640646 1.266570 64.682442 114 63 64
3.640646 1.406003 64.682442 116 66 66
3.640646 1.545437 64.682442 118 68 69
3.632732 1.681208 64.541832 120 71 72
3.632732 1.820338 64.541832 122 72 76
3.624852 1.955218 64.401825 125 73 79
3.624852 2.094047 64.401825 128 75 81
3.632732 2.237729 64.541832 130 77 83
3.617006 2.366570 64.262428 130 77 83
3.609194 2.499688 64.123634 130 76 82
3.617006 2.643626 64.262428 128 72 80
3.617006 2.782155 64.262428 126 70 78
3.617006 2.920683 64.262428 127 71 78
3.617006 3.059211 64.262428 131 73 82
3.617006 3.197739 64.262428 136 76 84
3.609194 3.329062 64.123634 136 77 85
3.617006 3.474795 64.262428 135 75 84
3.609194 3.605519 64.123634 134 74 83
3.585958 3.719647 63.710819 132 73 82
3.617006 3.890380 64.262428 130 73 82
3.617006 4.028908 64.262428 129 75 83
3.585958 4.131664 63.710819 129 76 84
3.555440 4.232671 63.168602 129 77 84
3.563020 4.378157 63.303288 130 78 84
3.578280 4.533952 63.574394 131 79 84
3.609194 4.711351 64.123634 131 79 82
3.617006 4.860077 64.262428 131 79 79
3.624852 5.009448 64.401825 130 78 77
3.617006 5.137133 64.262428 129 77 76
3.609194 5.264266 64.123634 130 78 76
3.601415 5.390852 63.985435 130 76 75
3.585958 5.505054 63.710819 129 75 74
3.578280 5.630311 63.574394 128 74 74
3.593670 5.792162 63.847832 128 74 74
3.617006 5.968302 64.262428 127 74 74
3.593670 6.067431 63.847832 125 74 74
3.585958 6.191750 63.710819 125 75 74
3.578280 6.315536 63.574394 126 77 76
3.570634 6.438794 63.438553 127 80 77
3.563020 6.561525 63.303288 130 83 79
3.555440 6.683735 63.168602 134 86 82
3.555440 6.819905 63.168602 138 88 87
3.555440 6.956076 63.168602 141 89 90
3.540374 7.062194 62.900936 142 89 91
3.532889 7.182570 62.767956 142 88 91
3.525436 7.302438 62.635532 142 87 92
3.525436 7.437459 62.635532 141 86 91
3.518014 7.556538 62.503666 136 82 86
3.518014 7.691275 62.503666 132 78 82
3.510623 7.809570 62.372356 128 75 79
3.503263 7.927370 62.241596 125 72 76
3.518014 8.095485 62.503666 123 70 74
3.510623 8.212932 62.372356 121 68 72
3.518014 8.364959 62.503666 121 67 71
3.518014 8.499696 62.503666 120 67 71
3.532889 8.670941 62.767956 120 67 70
3.555440 9.270969 63.168602 118 67 72
3.570634 9.447341 63.438553 117 67 75
3.563020 9.563658 63.303288 119 68 80
3.563020 9.700118 63.303288 119 67 83
3.563020 9.836578 63.303288 119 67 86
3.563020 9.973040 63.303288 123 71 90
3.570634 10.131102 63.438553 126 74 93
3.563020 10.245960 63.303288 124 73 91
3.563020 10.382421 63.303288 123 71 86
3.563020 10.518882 63.303288 122 69 81
3.563020 10.655342 63.303288 120 67 78
3.578280 10.838020 63.574394 120 67 76
3.563020 10.928264 63.303288 122 69 77
3.570634 11.088367 63.438553 121 70 76
3.563020 11.201184 63.303288 120 69 74
3.563020 11.337645 63.303288 119 68 72
3.563020 11.474106 63.303288 119 69 72
3.555440 11.585863 63.168602 119 70 72
3.563020 11.747026 63.303288 120 71 72
3.570634 11.908879 63.438553 119 72 73
3.578280 12.071425 63.574394 119 71 73
3.563020 12.156408 63.303288 117 70 73
3.570634 12.319136 63.438553 116 69 72
3.570634 12.455888 63.438553 115 69 71
3.563020 12.565790 63.303288 115 69 70
3.555440 12.675224 63.168602 115 69 69
3.555440 12.811395 63.168602 114 68 69
3.555440 12.947565 63.168602 113 68 68
3.532889 13.000751 62.767956 112 67 68
3.525436 13.108345 62.635532 111 66 68
3.518014 13.215486 62.503666 109 65 68
3.481368 13.211157 61.852589 107 63 67
3.488636 13.372350 61.981716 105 61 66
3.518014 13.619696 62.503666 102 60 64
3.503263 13.696762 62.241596 100 59 62
3.510623 13.859990 62.372356 99 58 61
3.547891 14.143005 63.034485 99 58 60
3.547891 14.278887 63.034485 99 58 59
3.632732 15.037729 64.541832 104 59 60
3.916606 -8.656082 67.018608 51 34 34
3.881558 -8.435447 66.418884 52 33 34
3.847132 -8.218724 65.829803 53 33 34
3.916606 -8.222673 67.018608 54 33 35
3.899004 -8.041898 66.717400 56 34 36
3.847132 -7.793004 65.829803 59 35 37
3.804949 -7.286501 65.107986 66 40 41
3.796623 -7.130513 64.965523 68 42 43
3.804949 -6.584747 65.107986 73 44 44
3.804949 -6.444396 65.107986 74 42 43
3.804949 -6.304045 65.107986 75 41 42
3.838621 -6.218240 65.684166 76 39 41
3.916606 -6.200100 67.018608 79 40 41
3.907785 -6.041992 66.867661 84 42 44
3.916606 -5.911161 67.018608 88 46 48
3.925467 -5.779739 67.170235 91 49 51
3.925467 -5.634943 67.170235 92 51 54
3.934369 -5.502595 67.322548 93 53 56
3.934369 -5.357471 67.322548 92 53 58
3.925467 -5.200553 67.170235 92 53 59
3.838621 -2.395231 65.684166 107 62 62
3.855681 -2.121432 65.976097 108 59 62
3.838621 -1.970453 65.684166 108 58 62
3.847132 -1.832915 65.829803 108 57 62
3.847132 -1.691008 65.829803 108 57 64
3.830147 -1.542262 65.539169 109 58 66
3.821711 -1.397895 65.394806 111 60 68
3.830147 -1.259701 65.539169 113 61 70
3.838621 -1.120895 65.684166 114 62 70
3.830147 -0.977140 65.539169 114 62 70
3.821711 -0.834019 65.394806 114 63 69
3.747422 -0.264891 64.123634 117 66 69
3.715325 -0.125577 63.574394 118 66 70
3.707386 0.011443 63.438553 120 68 71
3.699481 0.147879 63.303288 121 69 71
3.691610 0.283735 63.168602 122 70 71
3.683772 0.419014 63.034485 120 69 69
3.715325 0.559648 63.574394 119 68 67
3.731305 0.699689 63.847832 118 67 67
3.723298 0.835527 63.710819 117 66 66
3.747422 0.979169 64.123634 116 65 65
3.755534 1.119817 64.262428 114 64 64
3.771862 1.263816 64.541832 114 64 63
3.780080 1.406003 64.682442 115 65 65
3.771862 1.542077 64.541832 117 68 67
3.763680 1.677561 64.401825 120 70 70
3.771862 1.820338 64.541832 121 71 73
3.755534 1.950986 64.262428 123 72 76
3.755534 2.089514 64.262428 127 74 80
3.763680 2.232875 64.401825 129 76 82
3.747422 2.361459 64.123634 130 78 83
3.747422 2.499688 64.123634 131 77 83
3.755534 2.643626 64.262428 130 75 82
3.755534 2.782155 64.262428 128 74 81
3.747422 2.914375 64.123634 129 74 81
3.747422 3.052604 64.123634 133 76 85
3.755534 3.197739 64.262428 137 79 88
3.747422 3.329062 64.123634 138 79 88
3.747422 3.467290 64.123634 137 78 88
3.739346 3.597749 63.985435 136 76 86
3.707386 3.703751 63.438553 134 75 85
3.747422 3.881977 64.123634 131 74 83
3.747422 4.020206 64.123634 130 74 83
3.715325 4.122817 63.574394 130 76 84
3.691610 4.232671 63.168602 130 78 84
3.691610 4.368842 63.168602 131 79 84
3.715325 4.533952 63.574394 132 80 84
3.739346 4.701197 63.985435 131 80 81
3.763680 4.870619 64.401825 131 79 78
3.763680 5.009448 64.401825 129 77 75
3.763680 5.148276 64.401825 128 77 74
3.755534 5.275661 64.262428 130 78 76
3.739346 5.390852 63.985435 130 77 76
3.715325 5.493267 63.574394 128 76 74
3.707386 5.618281 63.438553 129 76 75
3.715325 5.767356 63.574394 129 76 75
3.739346 5.942576 63.985435 128 76 75
3.715325 6.041446 63.574394 127 76 75
3.715325 6.178492 63.574394 127 77 75
3.707386 6.302042 63.438553 127 79 75
3.707386 6.438794 63.438553 128 82 77
3.699481 6.561525 63.303288 132 85 80
3.691610 6.683735 63.168602 136 88 84
3.683772 6.805426 63.034485 141 91 89
3.683772 6.941307 63.034485 142 91 91
3.668196 7.047263 62.767956 143 90 92
3.660457 7.167417 62.635532 143 88 92
3.652751 7.287064 62.503666 140 85 89
3.652751 7.421801 62.503666 137 82 86
3.645077 7.540663 62.372356 134 78 82
3.645077 7.675117 62.372356 131 76 80
3.637435 7.793198 62.241596 128 73 78
3.637435 7.927370 62.241596 125 71 76
3.645077 8.078478 62.372356 124 70 75
3.645077 8.212932 62.372356 123 70 74
3.652751 8.364959 62.503666 123 69 73
3.660457 8.517628 62.635532 121 68 72
3.668196 8.670941 62.767956 120 67 71
3.691610 9.270969 63.168602 119 68 73
3.707386 9.447341 63.438553 119 69 75
3.707386 9.584093 63.438553 120 69 79
3.707386 9.720845 63.438553 120 69 81
3.699481 9.836578 63.303288 120 69 83
3.699481 9.973040 63.303288 121 70 85
3.707386 10.131102 63.438553 121 70 86
3.699481 10.245960 63.303288 121 70 85
3.699481 10.382421 63.303288 121 70 83
3.707386 10.541358 63.438553 122 69 80
3.699481 10.655342 63.303288 121 69 79
3.715325 10.838020 63.574394 122 69 78
3.699481 10.928264 63.303288 123 70 77
3.707386 11.088367 63.438553 122 70 76
3.699481 11.201184 63.303288 120 69 75
3.699481 11.337645 63.303288 120 69 74
3.699481 11.474106 63.303288 120 70 74
3.683772 11.561264 63.034485 121 72 74
3.699481 11.747026 63.303288 122 73 75
3.699481 11.883487 63.303288 121 74 75
3.699481 12.019948 63.303288 120 73 75
3.683772 12.104789 63.034485 118 72 73
3.683772 12.240670 63.034485 116 71 71
3.683772 12.376551 63.034485 114 69 70
3.675967 12.485923 62.900936 114 69 69
3.675967 12.621516 62.900936 114 69 69
3.675967 12.757109 62.900936 114 68 69
3.675967 12.892702 62.900936 114 68 69
3.660457 12.973324 62.635532 113 67 69
3.645077 13.053267 62.372356 112 66 70
3.637435 13.160074 62.241596 111 65 70
3.599703 13.156339 61.595940 109 64 69
3.599703 13.289119 61.595940 107 62 68
3.637435 13.562590 62.241596 104 60 65
3.614701 13.611157 61.852589 102 59 63
3.614701 13.744491 61.852589 100 58 62
3.660457 14.053493 62.635532 100 59 62
3.660457 14.188514 62.635532 101 59 61
3.804949 15.029288 65.107986 104 61 62
3.755534 14.972631 64.262428 106 62 63
4.088765 -8.715101 67.475548 53 36 36
4.051929 -8.492443 66.867661 53 35 35
4.033759 -8.310863 66.567810 54 35 36
4.088765 -8.278738 67.475548 55 35 36
4.070264 -8.096480 67.170235 57 35 37
4.015751 -7.845189 66.270630 59 36 37
3.953971 -6.599219 65.251083 73 44 43
3.953971 -6.458560 65.251083 73 42 41
3.953971 -6.317900 65.251083 73 40 41
3.989039 -6.232028 65.829803 75 38 40
4.051929 -6.186136 66.867661 78 39 41
4.051929 -6.041992 66.867661 83 42 44
4.051929 -5.897848 66.867661 88 47 49
4.070264 -5.779739 67.170235 91 50 52
4.061076 -5.622222 67.018608 92 52 53
4.079494 -5.502595 67.322548 92 53 55
4.070264 -5.345350 67.170235 91 53 56
4.061076 -5.188814 67.018608 91 53 58
3.894062 -4.282780 64.262428 97 57 58
3.980214 -2.395231 65.684166 109 63 64
3.971427 -2.248663 65.539169 109 61 64
3.997904 -2.121432 65.976097 110 59 63
3.980214 -1.970453 65.684166 110 57 63
3.989039 -1.832915 65.829803 110 57 62
3.989039 -1.691008 65.829803 112 58 64
3.971427 -1.542262 65.539169 114 59 68
3.962680 -1.397895 65.394806 115 61 70
3.971427 -1.259701 65.539169 116 62 70
3.971427 -0.977140 65.539169 116 63 70
3.962680 -0.834019 65.394806 115 63 69
3.885652 -0.264891 64.123634 117 66 70
3.860636 -0.125847 63.710819 119 68 72
3.852370 0.011468 63.574394 121 69 72
3.835942 0.147879 63.303288 122 70 71
3.827780 0.283735 63.168602 123 71 71
3.827780 0.419905 63.168602 122 71 70
3.860636 0.560849 63.710819 122 71 69
3.868939 0.699689 63.847832 122 71 69
3.860636 0.835527 63.710819 120 69 68
3.885652 0.979169 64.123634 118 67 66
3.894062 1.119817 64.262428 115 65 64
3.910993 1.263816 64.541832 114 64 63
3.910993 1.402947 64.541832 114 64 64
3.910993 1.542077 64.541832 115 66 65
3.894062 1.673930 64.262428 118 68 68
3.902509 1.816389 64.401825 120 70 71
3.885652 1.946772 64.123634 123 72 75
3.885652 2.085001 64.123634 127 74 79
3.894062 2.228042 64.262428 129 76 82
3.868939 2.351302 63.847832 131 78 84
3.877277 2.494301 63.985435 131 78 85
3.877277 2.632232 63.985435 130 77 84
3.885652 2.776146 64.123634 129 76 82
3.885652 2.914375 64.123634 131 78 84
3.885652 3.052604 64.123634 136 81 88
3.885652 3.190833 64.123634 139 83 91
3.877277 3.321887 63.985435 140 82 91
3.877277 3.459818 63.985435 139 81 90
3.868939 3.590012 63.847832 138 79 88
3.844138 3.703751 63.438553 135 76 86
3.877277 3.873611 63.985435 132 74 84
3.877277 4.011542 63.985435 131 75 83
3.860636 4.131664 63.710819 131 76 84
3.844138 4.250760 63.438553 131 78 84
3.835942 4.378157 63.303288 132 80 84
3.860636 4.543681 63.710819 132 80 84
3.885652 4.711351 64.123634 131 80 81
3.902509 4.870619 64.401825 129 79 78
3.910993 5.020338 64.541832 127 76 74
3.902509 5.148276 64.401825 126 75 74
3.894062 5.275661 64.262428 129 77 76
3.868939 5.379259 63.847832 131 78 77
3.852370 5.493267 63.574394 131 79 78
3.835942 5.606302 63.303288 132 79 78
3.844138 5.755033 63.438553 130 78 78
3.860636 5.917072 63.710819 129 78 77
3.835942 6.015683 63.303288 128 78 76
3.844138 6.165289 63.438553 128 79 76
3.835942 6.288604 63.303288 128 80 77
3.835942 6.425065 63.303288 131 83 80
3.827780 6.547565 63.168602 136 87 84
3.819653 6.669545 63.034485 139 90 88
3.811561 6.791008 62.900936 142 91 91
3.811561 6.926600 62.900936 143 91 92
3.803502 7.047263 62.767956 143 90 92
3.795478 7.167417 62.635532 142 88 91
3.779531 7.271755 62.372356 138 83 87
3.779531 7.406209 62.372356 133 77 82
3.779531 7.540663 62.372356 130 74 78
3.779531 7.675117 62.372356 127 71 76
3.771607 7.793198 62.241596 124 69 75
3.771607 7.927370 62.241596 124 69 75
3.779531 8.078478 62.372356 125 70 77
3.787488 8.230222 62.503666 125 71 77
3.787488 8.364959 62.503666 123 69 76
3.787488 8.499696 62.503666 121 68 73
3.803502 8.670941 62.767956 119 67 72
3.811561 8.824905 62.900936 118 67 71
3.827780 9.270969 63.168602 121 71 74
3.835942 9.427197 63.303288 122 72 76
3.827780 9.543309 63.168602 122 72 78
3.827780 9.679480 63.168602 122 71 80
3.827780 9.815650 63.168602 122 71 81
3.827780 9.951820 63.168602 122 71 82
3.835942 10.109500 63.303288 121 70 82
3.827780 10.224160 63.168602 121 70 81
3.827780 10.360331 63.168602 122 70 80
3.835942 10.518882 63.303288 123 71 80
3.835942 10.655342 63.303288 123 71 79
3.844138 10.814862 63.438553 123 71 79
3.835942 10.928264 63.303288 123 71 78
3.835942 11.064724 63.303288 123 70 77
3.835942 11.201184 63.303288 121 70 76
3.827780 11.313522 63.168602 120 69 75
3.827780 11.449693 63.168602 121 71 76
3.811561 11.536770 62.900936 123 74 78
3.819653 11.697145 63.034485 124 75 79
3.827780 11.858203 63.168602 123 75 78
3.819653 11.968907 63.034485 121 74 76
3.803502 12.053606 62.767956 119 73 75
3.803502 12.188912 62.767956 117 71 73
3.803502 12.324219 62.767956 115 69 71
3.803502 12.459525 62.767956 114 69 71
3.795478 12.568260 62.635532 114 69 70
3.795478 12.703281 62.635532 114 68 70
3.803502 12.865445 62.767956 114 68 70
3.787488 12.946012 62.503666 114 68 70
3.779531 13.053267 62.372356 114 67 72
3.763717 13.132543 62.111385 114 67 72
3.732483 13.156339 61.595940 111 66 71
3.732483 13.289119 61.595940 109 63 69
3.748035 13.477824 61.852589 106 61 67
3.732483 13.554680 61.595940 103 60 64
3.732483 13.687460 61.595940 102 59 63
3.771607 13.965106 62.241596 102 60 63
3.779531 14.128898 62.372356 103 61 63
3.771607 14.233450 62.241596 104 62 64
3.860636 14.844110 63.710819 106 63 65
4.103649 -6.613754 65.394806 73 44 43
4.103649 -6.472785 65.394806 72 42 42
4.103649 -6.331816 65.394806 73 40 41
4.140126 -6.245877 65.976097 75 39 41
4.186644 -6.172235 66.717400 78 40 42
4.196074 -6.041992 66.867661 83 43 45
4.196074 -5.897848 66.867661 87 48 49
4.215060 -5.779739 67.170235 90 50 52
4.205545 -5.622222 67.018608 90 51 53
4.224618 -5.502595 67.322548 90 52 54
4.215060 -5.345350 67.170235 90 52 55
4.196074 -5.177127 66.867661 90 53 56
4.050123 -4.440532 64.541832 96 57 59
4.023880 -4.273530 64.123634 97 59 59
4.015208 -4.126389 63.985435 98 59 59
4.050123 -3.605749 64.541832 97 58 60
4.050123 -3.466619 64.541832 98 60 61
4.085650 -3.356677 65.107986 98 61 62
4.085650 -3.216326 65.107986 98 62 63
4.103649 -3.089525 65.394806 99 63 64
4.112708 -2.955065 65.539169 100 63 64
4.112708 -2.813785 65.539169 101 64 64
4.085650 -2.654922 65.107986 104 64 64
4.112708 -2.531224 65.539169 106 64 64
4.130946 -2.400542 65.829803 109 63 65
4.121807 -2.253638 65.684166 110 61 65
4.140126 -2.121432 65.976097 111 59 64
4.130946 -1.974822 65.829803 111 57 63
4.140126 -1.836988 65.976097 111 57 62
4.140126 -1.694766 65.976097 114 59 65
4.130946 -1.549101 65.829803 118 62 69
4.112708 -1.400981 65.539169 119 64 71
4.112708 -1.259701 65.539169 119 64 71
4.130946 -1.123380 65.829803 119 64 71
4.121807 -0.979302 65.684166 117 63 69
4.103649 -0.834019 65.394806 116 63 69
4.032590 -0.265464 64.262428 118 67 71
4.006573 -0.126117 63.847832 121 69 72
4.006573 0.011517 63.847832 123 71 73
3.989415 0.148513 63.574394 123 71 72
3.980890 0.284948 63.438553 124 71 71
3.989415 0.422603 63.574394 125 72 71
4.015208 0.563266 63.985435 125 73 71
4.015208 0.701197 63.985435 125 73 71
4.015208 0.839128 63.985435 123 72 71
4.032590 0.981289 64.262428 120 70 69
4.032590 1.119817 64.262428 117 67 66
4.050123 1.263816 64.541832 114 65 65
4.050123 1.402947 64.541832 114 65 64
4.032590 1.535401 64.262428 116 66 65
4.023880 1.670314 64.123634 118 68 67
4.032590 1.812458 64.262428 121 70 71
4.015208 1.942576 63.985435 124 72 74
4.015208 2.080508 63.985435 127 75 78
4.015208 2.218439 63.985435 129 77 82
3.997976 2.346256 63.710819 130 78 85
3.997976 2.483595 63.710819 130 79 86
4.006573 2.626571 63.847832 130 78 85
4.006573 2.764205 63.847832 130 79 84
4.015208 2.908094 63.985435 133 81 87
4.015208 3.046025 63.985435 138 86 91
4.015208 3.183956 63.985435 141 87 93
4.006573 3.314743 63.847832 141 85 92
4.006573 3.452377 63.847832 140 83 90
3.997976 3.582308 63.710819 138 81 89
3.989415 3.711682 63.574394 136 78 86
4.006573 3.865281 63.847832 134 76 84
4.015208 4.011542 63.985435 132 76 83
4.006573 4.140549 63.847832 131 77 83
3.997976 4.269003 63.710819 131 78 83
3.997976 4.406342 63.710819 131 80 83
4.015208 4.563266 63.985435 131 80 83
4.050123 4.881207 64.541832 128 78 78
4.058947 5.031276 64.682442 126 75 76
4.050123 5.159468 64.541832 126 75 75
4.050123 5.298599 64.541832 128 77 77
4.023880 5.402495 64.123634 132 80 80
3.989415 5.493267 63.574394 134 82 82
3.955534 5.582496 63.034485 134 82 82
3.972402 5.742762 63.303288 132 81 80
3.980890 5.891785 63.438553 131 80 79
3.955534 5.990139 63.034485 130 80 77
3.955534 6.126020 63.034485 129 80 77
3.955534 6.261901 63.034485 129 81 78
3.955534 6.397782 63.034485 132 84 81
3.955534 6.533663 63.034485 137 88 86
3.947154 6.655414 62.900936 139 89 88
3.938809 6.776650 62.767956 140 89 89
3.938809 6.911957 62.767956 141 89 90
3.938809 7.047263 62.767956 142 88 91
3.922225 7.152328 62.503666 142 87 90
3.913985 7.271755 62.372356 138 82 86
3.913985 7.406209 62.372356 133 76 82
3.913985 7.540663 62.372356 130 73 79
3.913985 7.675117 62.372356 126 69 76
3.905779 7.793198 62.241596 122 65 74
3.905779 7.927370 62.241596 121 65 74
3.913985 8.078478 62.372356 124 69 78
3.922225 8.230222 62.503666 125 70 79
3.922225 8.364959 62.503666 123 69 78
3.930499 8.517628 62.635532 120 67 75
3.938809 8.670941 62.767956 118 67 73
3.947154 8.824905 62.900936 118 66 72
3.980890 9.173837 63.438553 120 70 75
3.963950 9.270969 63.168602 122 72 77
3.963950 9.407139 63.168602 124 73 78
3.955534 9.523047 63.034485 125 74 80
3.947154 9.638465 62.900936 125 74 81
3.955534 9.794810 63.034485 124 73 81
3.955534 9.930691 63.034485 123 72 81
3.963950 10.087991 63.168602 121 70 79
3.955534 10.202454 63.034485 121 70 78
3.955534 10.338334 63.034485 122 71 78
3.955534 10.474216 63.034485 124 72 79
3.963950 10.632671 63.168602 124 72 80
3.972402 10.791802 63.303288 123 72 79
3.963950 10.905011 63.168602 123 72 79
3.963950 11.041182 63.168602 123 72 79
3.963950 11.177352 63.168602 123 71 79
3.955534 11.289502 63.034485 123 71 79
3.947154 11.401176 62.900936 124 73 80
3.938809 11.512380 62.767956 126 75 82
3.947154 11.672363 62.900936 126 76 82
3.955534 11.833027 63.034485 124 76 81
3.947154 11.943550 62.900936 122 75 80
3.938809 12.053606 62.767956 120 73 78
3.930499 12.163198 62.635532 117 71 76
3.938809 12.324219 62.767956 115 69 74
3.930499 12.433239 62.635532 114 68 73
3.930499 12.568260 62.635532 114 68 72
3.930499 12.703281 62.635532 114 68 71
3.938809 12.865445 62.767956 115 68 71
3.922225 12.946012 62.503666 115 68 71
3.913985 13.053267 62.372356 116 68 73
3.897608 13.132543 62.111385 116 68 73
3.873299 13.183691 61.723995 114 67 72
3.873299 13.316748 61.723995 111 65 70
3.873299 13.449803 61.723995 108 63 68
3.865263 13.554680 61.595940 106 61 65
3.873299 13.715916 61.723995 105 61 64
3.905779 13.965106 62.241596 105 61 64
3.913985 14.128898 62.372356 106 63 66
3.913985 14.263351 62.372356 107 64 67
3.980890 14.780674 63.438553 108 65 68
4.263400 -6.643019 65.684166 73 44 43
4.263400 -6.501426 65.684166 73 42 42
4.253988 -6.345794 65.539169 73 41 41
4.282348 -6.245877 65.976097 75 40 42
4.330464 -6.172235 66.717400 78 41 43
4.340218 -6.041992 66.867661 82 44 46
4.340218 -5.897848 66.867661 85 47 49
4.350015 -5.766692 67.018608 87 49 51
4.359857 -5.634943 67.170235 88 51 52
4.369743 -5.502595 67.322548 89 52 53
4.350015 -5.333283 67.018608 89 52 54
4.320755 -5.153912 66.567810 89 53 54
4.311089 -4.999205 66.418884 90 53 55
4.180166 -4.430899 64.401825 95 57 58
4.153139 -4.264320 63.985435 98 59 59
4.144208 -4.117515 63.847832 98 59 59
4.162109 -3.997072 64.123634 97 57 57
4.153139 -3.850527 63.985435 95 55 56
4.171118 -3.728668 64.262428 96 57 58
4.180166 -3.597927 64.401825 98 60 61
4.189253 -3.466619 64.541832 99 62 63
4.226001 -3.356677 65.107986 99 62 64
4.226001 -3.216326 65.107986 99 63 65
4.235289 -3.082735 65.251083 99 63 66
4.244618 -2.948556 65.394806 99 63 66
4.253988 -2.813785 65.539169 100 63 65
4.235289 -2.660757 65.251083 102 64 64
4.263400 -2.536824 65.684166 106 64 64
4.272853 -2.400542 65.829803 108 64 65
4.263400 -2.253638 65.684166 110 62 65
4.282348 -2.121432 65.976097 111 60 64
4.282348 -1.979210 65.976097 111 58 63
4.291885 -1.841079 66.123032 111 57 63
4.301466 -1.702332 66.270630 115 60 66
4.282348 -1.552543 65.976097 119 63 70
4.272853 -1.407194 65.829803 121 64 71
4.263400 -1.262488 65.684166 121 64 71
4.291885 -1.128384 66.123032 120 64 71
4.272853 -0.981473 65.829803 119 64 69
4.253988 -0.835860 65.539169 117 64 68
4.207547 -0.407521 64.823669 118 67 70
4.180166 -0.266040 64.401825 120 68 72
4.171118 -0.126936 64.262428 123 70 73
4.171118 0.011592 64.262428 124 72 74
4.162109 0.149796 64.123634 124 72 73
4.162109 0.288025 64.123634 125 72 72
4.180166 0.428103 64.401825 127 74 73
4.171118 0.565704 64.262428 128 76 74
4.171118 0.704233 64.262428 127 75 74
4.171118 0.842761 64.262428 126 75 74
4.189253 0.985555 64.541832 123 73 71
4.180166 1.122246 64.401825 119 70 69
4.198380 1.266570 64.682442 117 68 68
4.189253 1.402947 64.541832 117 67 66
4.171118 1.535401 64.262428 118 69 67
4.162109 1.670314 64.123634 120 71 68
4.162109 1.808543 64.123634 123 72 71
4.153139 1.942576 63.985435 125 74 75
4.144208 2.076033 63.847832 127 76 78
4.135314 2.208917 63.710819 129 77 82
4.126460 2.341232 63.574394 129 79 85
4.126460 2.478277 63.574394 129 79 86
4.126460 2.615322 63.574394 129 78 85
4.135314 2.758274 63.710819 130 79 85
4.135314 2.895612 63.710819 133 83 88
4.135314 3.032952 63.710819 138 87 91
4.135314 3.170291 63.710819 140 88 92
4.126460 3.300547 63.574394 140 86 90
4.126460 3.437592 63.574394 139 83 88
4.126460 3.574637 63.574394 138 81 87
4.117642 3.703751 63.438553 136 79 85
4.135314 3.856986 63.710819 134 77 83
4.135314 3.994325 63.710819 131 76 82
4.144208 4.140549 63.847832 131 77 82
4.135314 4.269003 63.710819 131 78 81
4.144208 4.415818 63.847832 131 79 82
4.162109 4.573122 64.123634 131 80 82
4.198380 4.891842 64.682442 129 78 80
4.207547 5.042261 64.823669 128 77 79
4.198380 5.170709 64.682442 128 76 79
4.198380 5.310143 64.682442 130 78 81
4.171118 5.414189 64.262428 133 81 83
4.126460 5.493267 63.574394 135 83 85
4.091415 5.582496 63.034485 135 84 85
4.100121 5.730544 63.168602 133 82 83
4.100121 5.866714 63.168602 133 82 82
4.082747 5.977448 62.900936 132 82 80
4.082747 6.113041 62.900936 131 82 79
4.074116 6.235424 62.767956 131 83 79
4.082747 6.384228 62.900936 132 83 81
4.074116 6.506037 62.767956 135 85 84
4.074116 6.641344 62.767956 136 85 85
4.065520 6.762353 62.635532 137 85 85
4.065520 6.897375 62.635532 139 86 87
4.074116 7.047263 62.767956 141 87 89
4.056962 7.152328 62.503666 140 86 89
4.048439 7.271755 62.372356 137 81 85
4.048439 7.406209 62.372356 134 76 83
4.048439 7.540663 62.372356 132 75 83
4.048439 7.675117 62.372356 129 72 82
4.039951 7.793198 62.241596 123 66 76
4.039951 7.927370 62.241596 120 64 75
4.048439 8.078478 62.372356 123 68 79
4.056962 8.230222 62.503666 124 70 82
4.056962 8.364959 62.503666 122 69 81
4.065520 8.517628 62.635532 119 67 78
4.074116 8.670941 62.767956 118 66 75
4.091415 8.843642 63.034485 117 66 74
4.100121 8.998629 63.168602 118 68 75
4.126460 9.193480 63.574394 121 71 77
4.100121 9.270969 63.168602 124 73 80
4.100121 9.407139 63.168602 125 74 81
4.082747 9.502872 62.900936 126 75 82
4.082747 9.638465 62.900936 126 75 82
4.082747 9.774058 62.900936 125 73 81
4.082747 9.909652 62.900936 123 71 79
4.082747 10.045244 62.900936 121 69 77
4.082747 10.180838 62.900936 120 69 76
4.074116 10.294621 62.767956 122 71 77
4.082747 10.452024 62.900936 124 72 78
4.082747 10.587618 62.900936 124 72 79
4.074116 11.377073 62.767956 126 75 82
4.065520 11.488091 62.635532 127 76 84
4.065520 11.623113 62.635532 128 76 84
4.082747 11.807957 62.900936 126 76 85
4.074116 11.918299 62.767956 125 76 84
4.065520 12.028176 62.635532 122 74 82
4.065520 12.163198 62.635532 119 71 79
4.074116 12.324219 62.767956 116 69 76
4.065520 12.433239 62.635532 114 68 74
4.056962 12.541801 62.503666 114 68 73
4.056962 12.676538 62.503666 115 68 72
4.065520 12.838303 62.635532 115 68 71
4.056962 12.946012 62.503666 116 69 72
4.048439 13.053267 62.372356 116 69 73
4.031499 13.132543 62.111385 116 69 73
4.006355 13.183691 61.723995 115 69 73
4.014701 13.344491 61.852589 113 67 71
4.014701 13.477824 61.852589 111 66 69
3.998043 13.554680 61.595940 109 64 67
4.006355 13.715916 61.723995 108 64 67
4.039951 13.965106 62.241596 108 65 68
4.056962 14.158643 62.503666 109 65 69
4.056962 14.293380 62.503666 110 66 70
4.108863 14.749159 63.303288 111 67 71
4.545792 -8.316540 67.783661 58 38 40
4.535437 -8.151810 67.629250 58 37 38
4.414760 -6.657748 65.829803 73 43 43
4.414760 -6.515841 65.829803 72 42 41
4.404993 -6.359833 65.684166 73 40 41
4.424570 -6.245877 65.976097 75 40 42
4.474285 -6.172235 66.717400 78 41 43
4.484362 -6.041992 66.867661 81 44 46
4.484362 -5.897848 66.867661 84 47 48
4.494484 -5.766692 67.018608 86 50 51
4.504653 -5.634943 67.170235 87 52 53
4.514868 -5.502595 67.322548 88 53 53
4.484362 -5.321271 66.867661 88 53 54
4.454266 -5.142382 66.418884 88 52 54
4.414760 -4.954866 65.829803 88 52 54
4.347285 -4.599660 64.823669 91 54 55
4.318995 -4.430899 64.401825 93 55 56
4.291070 -4.264320 63.985435 96 57 56
4.281842 -4.117515 63.847832 97 58 57
4.291070 -3.988458 63.985435 97 57 57
4.291070 -3.850527 63.985435 97 57 56
4.300338 -3.720614 64.123634 97 58 58
4.309647 -3.590140 64.262428 99 61 62
4.318995 -3.459099 64.401825 101 63 64
4.347285 -3.342019 64.823669 101 63 66
4.356798 -3.209288 64.965523 101 64 68
4.366352 -3.075975 65.107986 100 64 68
4.375948 -2.942076 65.251083 100 63 67
4.385587 -2.807587 65.394806 100 62 66
4.385587 -2.666618 65.394806 102 63 64
4.404993 -2.536824 65.684166 105 64 64
4.424570 -2.405877 65.976097 107 64 64
4.414760 -2.258635 65.829803 110 63 64
4.434424 -2.126157 66.123032 111 62 64
4.434424 -1.983618 66.123032 111 60 64
4.444323 -1.845189 66.270630 112 59 64
4.464252 -1.709965 66.567810 115 61 66
4.454266 -1.562963 66.418884 119 64 69
4.424570 -1.410321 65.976097 121 64 70
4.424570 -1.268099 65.976097 121 64 70
4.454266 -1.133433 66.418884 121 64 70
4.444323 -0.988046 66.270630 120 65 68
4.414760 -0.839567 65.829803 119 65 68
4.385587 -0.693050 65.394806 118 66 69
4.356798 -0.548456 64.965523 119 67 69
4.356798 -0.408413 64.965523 120 68 71
4.328384 -0.266619 64.541832 122 70 73
4.328384 -0.127488 64.541832 124 71 74
4.318995 0.011617 64.401825 125 72 74
4.318995 0.150446 64.401825 125 73 73
4.328384 0.289903 64.541832 126 73 73
4.337814 0.429968 64.682442 128 76 74
4.328384 0.568164 64.541832 129 77 76
4.328384 0.707295 64.541832 129 77 77
4.328384 0.846425 64.541832 127 77 76
4.337814 0.987703 64.682442 124 75 75
4.337814 1.127136 64.682442 121 73 73
4.337814 1.266570 64.682442 119 71 70
4.337814 1.406003 64.682442 120 71 69
4.318995 1.538732 64.401825 122 72 69
4.300338 1.670314 64.123634 124 74 71
