ply
format ascii 1.0
element vertex 1178
property float x
property float y
property float z
property uchar red
property uchar green
property uchar blue
end_header
-2.365586 -10.567448 61.341408 143 74 93
-2.360708 -10.413700 61.214931 142 76 91
-2.351013 -10.239516 60.963535 143 78 91
-2.355850 -10.128899 61.088974 148 85 96
-2.360708 -10.017824 61.214931 160 97 108
-2.355850 -9.865523 61.088974 176 114 124
-2.351013 -9.713849 60.963535 184 121 132
-2.355850 -9.602149 61.088974 178 115 125
-2.355850 -9.470462 61.088974 174 110 121
-2.351013 -9.319598 60.963535 183 119 132
-2.351013 -9.188182 60.963535 195 133 146
-2.355850 -9.075400 61.088974 192 133 147
-2.360708 -8.962153 61.214931 171 116 129
-2.360708 -8.830194 61.214931 148 96 107
-2.360708 -8.698236 61.214931 136 88 96
-2.360708 -8.566278 61.214931 128 84 89
-2.355850 -8.416965 61.088974 117 77 79
-2.360708 -8.302360 61.214931 129 94 96
-2.360708 -8.170401 61.214931 183 160 161
-2.355850 -8.021902 61.088974 228 214 215
-2.360708 -7.906484 61.214931 204 185 188
-2.360708 -7.774525 61.214931 141 115 122
-2.360708 -7.642566 61.214931 118 92 103
-2.360708 -7.510607 61.214931 144 121 134
-2.370483 -7.409202 61.468410 173 154 168
-2.370483 -7.276697 61.468410 177 163 178
-2.370483 -7.144192 61.468410 164 155 170
-2.380340 -7.040841 61.723995 157 153 169
-2.365586 -6.864968 61.341408 156 154 171
-2.370483 -6.746676 61.468410 148 148 164
-2.385299 -6.655509 61.852589 151 151 166
-2.390278 -6.535792 61.981716 179 180 192
-2.385299 -6.388843 61.852589 218 219 226
-2.385299 -6.255509 61.852589 243 244 246
-2.385299 -6.122176 61.852589 252 253 253
-2.375401 -5.963993 61.595940 254 254 254
-2.370483 -5.819140 61.468410 254 254 254
-2.355850 -5.651532 61.088974 254 254 254
-2.365586 -5.542654 61.341408 254 254 254
-2.365586 -5.410423 61.341408 254 254 254
-2.355850 -5.256470 61.088974 254 254 254
-2.351013 -5.114260 60.963535 245 246 245
-2.355850 -4.993096 61.088974 210 211 211
-3.367481 -6.384249 87.321304 254 254 254
-3.357605 -6.177843 87.065224 254 254 254
-3.438268 -6.134068 89.156883 254 254 254
-3.309085 -5.718626 85.807060 254 254 254
-3.162827 -4.405096 82.014481 251 252 252
-2.365586 -0.914555 61.341408 218 174 191
-2.360708 -0.780710 61.214931 234 192 203
-2.365586 -0.650092 61.341408 246 221 226
-2.355850 -0.515729 61.088974 252 237 239
-2.370483 -0.386428 61.468410 237 216 217
-2.375401 -0.254449 61.595940 192 154 158
-2.375401 -0.121669 61.595940 158 109 118
-2.385299 0.011157 61.852589 173 122 134
-2.400301 0.145399 62.241596 202 151 165
-2.385299 0.277824 61.852589 209 155 171
-2.375401 0.409451 61.595940 190 134 148
-2.400301 0.547915 62.241596 172 112 124
-2.405343 0.683520 62.372356 168 107 117
-2.385299 0.811157 61.852589 168 103 112
-2.390278 0.946462 61.981716 166 99 106
-2.385299 1.077824 61.852589 168 98 105
-2.385299 1.211157 61.852589 170 97 106
-2.385299 1.344491 61.852589 159 84 94
-2.395279 1.484007 62.111385 147 70 81
-2.390278 1.614521 61.981716 145 69 79
-2.395279 1.751790 62.111385 146 71 81
-2.405343 1.893604 62.372356 146 70 80
-2.400301 2.023806 62.241596 145 69 79
-2.405343 2.162512 62.372356 148 72 82
-2.410407 2.301801 62.503666 153 77 87
-2.415492 2.441678 62.635532 157 81 91
-2.410407 2.571275 62.503666 153 76 86
-2.405343 2.700327 62.372356 147 69 78
-2.405343 2.834780 62.372356 145 67 74
-2.400301 2.963009 62.241596 143 64 71
-2.400301 3.097181 62.241596 141 63 68
-2.400301 3.231353 62.241596 139 62 67
-2.400301 3.365525 62.241596 137 60 66
-2.410407 3.514433 62.503666 135 58 64
-2.415492 3.656868 62.635532 132 56 62
-2.472880 4.573122 64.123634 122 51 56
-2.494430 4.752409 64.682442 122 53 56
-2.494430 4.891842 64.682442 119 53 56
-2.494430 5.170709 64.682442 112 48 51
-2.494430 5.310143 64.682442 110 45 49
-2.489007 5.576860 64.541832 105 40 44
-2.555677 8.869097 66.270630 75 35 36
-2.572906 9.072709 66.717400 75 35 37
-2.578701 9.237288 66.867661 74 36 37
-2.578701 9.381432 66.867661 73 36 37
-2.590370 9.568678 67.170235 72 35 36
-2.608071 9.779853 67.629250 71 35 35
-2.614026 9.948300 67.783661 72 35 35
-2.632054 10.164036 68.251129 72 36 36
-2.644211 10.358788 68.566376 71 37 37
-2.662659 10.579896 69.044746 70 38 38
-2.662659 10.728734 69.044746 69 39 38
-2.668866 10.902926 69.205696 67 39 37
-2.237978 -11.251852 61.468410 169 121 134
-2.237978 -11.119347 61.468410 146 93 110
-2.237978 -10.986842 61.468410 122 64 84
-2.242621 -10.876856 61.595940 117 54 77
-2.242621 -10.744076 61.595940 129 64 86
-2.233354 -10.567448 61.341408 138 72 92
-2.233354 -10.435216 61.341408 140 74 92
-2.219596 -10.239516 60.963535 142 78 91
-2.224163 -10.128899 61.088974 149 86 97
-2.228749 -10.017824 61.214931 162 100 110
-2.224163 -9.865523 61.088974 178 116 126
-2.219596 -9.713849 60.963535 185 123 133
-2.219596 -9.582433 60.963535 184 121 131
-2.219596 -9.451015 60.963535 183 118 131
-2.219596 -9.319598 60.963535 187 122 135
-2.219596 -9.188182 60.963535 187 123 138
-2.219596 -9.056765 60.963535 178 117 132
-2.224163 -8.943713 61.088974 164 105 120
-2.224163 -8.812026 61.088974 151 95 109
-2.219596 -8.662515 60.963535 141 89 100
-2.224163 -8.548652 61.088974 131 84 93
-2.219596 -8.399681 60.963535 125 82 88
-2.224163 -8.285276 61.088974 139 102 107
-2.224163 -8.153589 61.088974 189 164 168
-2.224163 -8.021902 61.088974 232 220 223
-2.228749 -7.906484 61.214931 222 206 211
-2.224163 -7.758528 61.088974 174 149 158
-2.224163 -7.626841 61.088974 150 123 136
-2.224163 -7.495153 61.088974 164 140 155
-2.233354 -7.393894 61.341408 186 164 180
-2.237978 -7.276697 61.468410 191 174 190
-2.233354 -7.129431 61.341408 184 173 188
-2.242621 -7.026234 61.595940 181 174 190
-2.233354 -6.864968 61.341408 177 173 190
-2.237978 -6.746676 61.468410 161 160 177
-2.247283 -6.641673 61.723995 155 155 170
-2.251965 -6.522176 61.852589 171 172 185
-2.247283 -6.375560 61.723995 198 199 209
-2.251965 -6.255509 61.852589 228 229 235
-2.247283 -6.109448 61.723995 249 249 251
-2.242621 -5.963993 61.595940 254 254 254
-2.237978 -5.819140 61.468410 254 254 254
-2.224163 -5.651532 61.088974 254 254 254
-2.233354 -5.542654 61.341408 254 254 254
-2.233354 -5.410423 61.341408 254 254 254
-2.228749 -5.267308 61.214931 253 253 253
-2.224163 -5.124783 61.088974 242 242 242
-2.224163 -4.993096 61.088974 208 210 209
-2.228749 -4.871432 61.214931 192 194 193
-2.219596 -4.720009 60.963535 221 222 222
-3.236357 -5.540852 88.889946 255 255 255
-3.124114 -5.163713 85.807060 254 254 254
-3.010984 -4.441907 82.699837 252 252 252
-2.859638 -1.848266 78.542969 231 227 236
-2.844588 -1.670117 78.129585 212 202 215
-2.233354 -1.046786 61.341408 192 161 179
-2.228749 -0.912669 61.214931 211 172 188
-2.228749 -0.780710 61.214931 231 190 203
-2.228749 -0.648752 61.214931 242 212 223
-2.224163 -0.515729 61.088974 243 221 230
-2.233354 -0.385629 61.341408 218 188 197
-2.237978 -0.253922 61.468410 175 132 142
-2.242621 -0.121669 61.595940 155 106 121
-2.251965 0.011157 61.852589 171 120 139
-2.266129 0.145399 62.241596 191 140 160
-2.251965 0.277824 61.852589 197 143 164
-2.247283 0.410302 61.723995 188 132 150
-2.266129 0.547915 62.241596 180 122 137
-2.270890 0.683520 62.372356 178 117 130
-2.247283 0.809471 61.723995 173 109 120
-2.261388 0.948442 62.111385 168 99 109
-2.256667 1.080074 61.981716 167 96 104
-2.256667 1.213686 61.981716 166 93 101
-2.256667 1.347297 61.981716 158 83 91
-2.261388 1.484007 62.111385 148 73 82
-2.256667 1.614521 61.981716 146 72 80
-2.261388 1.751790 62.111385 147 73 80
-2.270890 1.893604 62.372356 145 71 79
-2.266129 2.023806 62.241596 144 69 77
-2.270890 2.162512 62.372356 146 70 80
-2.280471 2.306657 62.635532 152 76 86
-2.285293 2.446840 62.767956 157 80 90
-2.275670 2.571275 62.503666 154 77 87
-2.275670 2.706012 62.503666 149 72 80
-2.270890 2.834780 62.372356 146 69 76
-2.266129 2.963009 62.241596 143 65 72
-2.266129 3.097181 62.241596 139 62 68
-2.266129 3.231353 62.241596 136 60 66
-2.266129 3.365525 62.241596 134 59 64
-2.275670 3.514433 62.503666 132 56 62
-2.329619 4.563266 63.985435 122 51 56
-2.349877 4.742077 64.541832 121 53 56
-2.344779 4.870619 64.401825 119 52 55
-2.360138 5.042261 64.823669 115 50 53
-2.354996 5.170709 64.682442 112 48 50
-2.344779 5.287105 64.401825 109 45 48
-2.349877 5.437729 64.541832 107 42 46
-2.344779 5.564763 64.401825 104 41 44
-2.344779 5.703591 64.401825 103 41 43
-2.344779 5.842420 64.401825 102 41 43
-2.349877 5.994251 64.541832 100 41 43
-2.434557 9.093143 66.867661 73 34 36
-2.440053 9.258139 67.018608 72 34 36
-2.440053 9.402608 67.018608 71 34 35
-2.456689 9.612171 67.475548 70 33 34
-2.467907 9.802181 67.783661 71 33 34
-2.473555 9.971066 67.938766 72 34 35
-2.490653 10.187455 68.408394 73 36 37
-2.496405 10.358788 68.566376 73 37 38
-2.513822 10.579896 69.044746 72 38 38
-2.513822 10.728734 69.044746 71 39 38
-2.513822 10.877571 69.044746 68 39 38
-2.105473 -11.119347 61.468410 183 146 158
-2.105473 -10.986842 61.468410 142 95 112
-2.114227 -10.899468 61.723995 112 56 77
-2.114227 -10.766413 61.723995 118 57 79
-2.105473 -10.589326 61.468410 133 69 91
-2.105473 -10.456821 61.468410 139 75 94
-2.092476 -10.260586 61.088974 144 79 94
-2.096790 -10.149782 61.214931 151 88 100
-2.101123 -10.038522 61.341408 163 101 111
-2.096790 -9.885865 61.214931 177 116 125
-2.088179 -9.713849 60.963535 189 127 137
-2.088179 -9.582433 60.963535 197 133 143
-2.088179 -9.451015 60.963535 199 134 145
-2.083900 -9.300501 60.838612 193 128 140
-2.088179 -9.188182 60.963535 180 115 129
-2.088179 -9.056765 60.963535 166 102 117
-2.092476 -8.943713 61.088974 158 97 112
-2.092476 -8.812026 61.088974 152 94 108
-2.088179 -8.662515 60.963535 145 91 103
-2.088179 -8.531097 60.963535 138 88 98
-2.088179 -8.399681 60.963535 135 90 99
-2.088179 -8.268264 60.963535 148 109 116
-2.092476 -8.153589 61.088974 183 154 160
-2.088179 -8.005430 60.963535 217 198 204
-2.092476 -7.890215 61.088974 215 194 204
-2.088179 -7.742597 60.963535 192 164 178
-2.088179 -7.611180 60.963535 188 157 174
-2.092476 -7.495153 61.088974 202 175 193
-2.101123 -7.393894 61.341408 216 193 210
-2.101123 -7.261662 61.341408 214 196 212
-2.101123 -7.129431 61.341408 203 188 205
-2.109841 -7.026234 61.595940 206 195 211
-2.101123 -6.864968 61.341408 210 205 219
-2.105473 -6.746676 61.468410 191 188 202
-2.114227 -6.641673 61.723995 169 167 182
-2.118632 -6.522176 61.852589 172 172 184
-2.109841 -6.362333 61.595940 195 196 206
-2.114227 -6.242504 61.723995 226 227 232
-2.109841 -6.096773 61.595940 242 242 244
-2.109841 -5.963993 61.595940 244 244 245
-2.105473 -5.819140 61.468410 250 250 250
-2.096790 -5.663185 61.214931 254 254 254
-2.101123 -5.542654 61.341408 254 254 254
-2.105473 -5.421624 61.468410 254 254 254
-2.096790 -5.267308 61.214931 253 253 253
-2.096790 -5.135350 61.214931 242 242 242
-2.096790 -5.003391 61.214931 219 221 220
-2.101123 -4.881497 61.341408 215 217 216
-2.092476 -4.729721 61.088974 238 238 238
-2.092476 -4.598034 61.088974 253 253 253
-3.072336 -5.591071 89.695595 254 254 254
-2.964849 -5.208876 86.557556 254 254 254
-2.897274 -4.725483 84.584732 254 254 254
-2.848581 -4.466792 83.163147 253 253 253
-2.683228 -1.843389 78.335732 232 230 237
-2.669143 -1.665734 77.924522 214 206 218
-2.096790 -1.044628 61.214931 185 158 175
-2.096790 -0.912669 61.214931 199 164 180
-2.092476 -0.779104 61.088974 221 181 196
-2.096790 -0.648752 61.214931 233 196 210
-2.092476 -0.515729 61.088974 227 192 206
-2.101123 -0.385629 61.341408 196 156 172
-2.101123 -0.253398 61.341408 165 119 136
-2.109841 -0.121669 61.595940 160 112 133
-2.118632 0.011157 61.852589 174 125 148
-2.131957 0.145399 62.241596 184 133 158
-2.123055 0.278404 61.981716 188 135 159
-2.114227 0.410302 61.723995 187 132 154
-2.131957 0.547915 62.241596 187 127 147
-2.136436 0.683520 62.372356 185 124 141
-2.118632 0.811157 61.852589 178 112 127
-2.127496 0.948442 62.111385 169 99 111
-2.123055 1.080074 61.981716 166 94 103
-2.127496 1.216225 62.111385 164 89 98
-2.123055 1.347297 61.981716 157 82 91
-2.127496 1.484007 62.111385 151 76 84
-2.127496 1.617898 62.111385 148 73 81
-2.123055 1.748132 61.981716 149 73 81
-2.136436 1.893604 62.372356 148 73 80
-2.127496 2.019572 62.111385 148 72 80
-2.131957 2.157978 62.241596 149 73 82
-2.140933 2.301801 62.503666 151 74 84
-2.149986 2.446840 62.767956 153 75 85
-2.140933 2.571275 62.503666 152 75 83
-2.140933 2.706012 62.503666 149 72 81
-2.136436 2.834780 62.372356 146 69 77
-2.131957 2.963009 62.241596 142 66 72
-2.131957 3.097181 62.241596 137 62 67
-2.131957 3.231353 62.241596 134 59 63
-2.127496 3.358484 62.111385 131 58 60
-2.140933 3.514433 62.503666 129 55 58
-2.182282 4.543681 63.710819 121 50 54
-2.205951 4.731791 64.401825 119 51 54
-2.196422 4.849580 64.123634 117 51 53
-2.215563 5.031276 64.682442 115 49 51
-2.210747 5.159468 64.541832 112 47 48
-2.201176 5.275661 64.262428 109 44 47
-2.201176 5.414189 64.262428 107 43 46
-2.201176 5.552718 64.262428 105 42 45
-2.201176 5.691246 64.262428 102 41 44
-2.205951 5.842420 64.401825 101 41 43
-2.205951 5.981248 64.401825 99 42 43
-2.215563 6.146744 64.682442 96 42 43
-2.300777 9.134289 67.170235 72 33 34
-2.300777 9.279085 67.170235 71 33 34
-2.300777 9.423882 67.170235 69 32 33
-2.327101 9.678159 67.938766 68 31 32
-2.337801 9.869782 68.251129 68 31 32
-2.343188 10.039989 68.408394 71 33 34
-2.354036 10.234619 68.725098 73 36 36
-2.354036 10.382768 68.725098 73 37 38
-2.370497 10.604558 69.205696 72 37 38
-2.370497 10.753742 69.205696 70 38 38
-2.370497 10.902926 69.205696 68 38 38
-2.370497 11.052111 69.205696 65 38 36
-1.977061 -11.009636 61.595940 168 134 145
-1.981171 -10.899468 61.723995 115 65 83
-1.981171 -10.766413 61.723995 107 50 71
-1.977061 -10.611296 61.595940 126 65 86
-1.972968 -10.456821 61.468410 139 75 94
-1.960789 -10.260586 61.088974 145 81 96
-1.968891 -10.170753 61.341408 151 88 100
-1.968891 -10.038522 61.341408 160 98 108
-1.964832 -9.885865 61.214931 173 112 120
-1.956763 -9.713849 60.963535 189 127 136
-1.956763 -9.582433 60.963535 205 141 151
-1.960789 -9.470462 61.088974 209 145 154
-1.952753 -9.300501 60.838612 197 132 143
-1.952753 -9.169353 60.838612 175 110 123
-1.956763 -9.056765 60.963535 158 95 109
-1.956763 -8.925348 60.963535 155 93 108
-1.956763 -8.793931 60.963535 154 94 109
-1.952753 -8.644763 60.838612 148 92 105
-1.952753 -8.513616 60.838612 142 91 103
-1.952753 -8.382468 60.838612 146 98 109
-1.956763 -8.268264 60.963535 159 115 126
-1.956763 -8.136847 60.963535 176 138 149
-1.956763 -8.005430 60.963535 192 158 171
-1.960789 -7.890215 61.088974 194 161 176
-1.956763 -7.742597 60.963535 192 157 176
-1.956763 -7.611180 60.963535 202 169 189
-1.956763 -7.479763 60.963535 220 192 211
-1.960789 -7.363466 61.088974 236 217 230
-1.964832 -7.246690 61.214931 236 224 234
-1.964832 -7.114731 61.214931 221 209 220
-1.968891 -6.997200 61.341408 219 207 221
-1.964832 -6.850813 61.214931 231 223 236
-1.964832 -6.718855 61.214931 218 213 225
-1.972968 -6.614171 61.468410 176 174 186
-1.977061 -6.495113 61.595940 154 154 165
-1.972968 -6.349161 61.468410 184 184 191
-1.977061 -6.229553 61.595940 227 228 230
-1.972968 -6.084150 61.468410 228 228 230
-1.972968 -5.951645 61.468410 219 219 221
-1.972968 -5.819140 61.468410 239 239 240
-1.964832 -5.663185 61.214931 254 254 254
-1.968891 -5.542654 61.341408 255 255 255
-1.972968 -5.421624 61.468410 254 254 254
-1.964832 -5.267308 61.214931 253 253 253
-1.964832 -5.135350 61.214931 247 248 247
-1.964832 -5.003391 61.214931 237 239 238
-1.968891 -4.881497 61.341408 238 239 239
-1.964832 -4.739473 61.214931 249 249 249
-1.964832 -4.607514 61.214931 254 254 254
-2.887707 -5.608014 89.967400 254 254 254
-2.786384 -5.224107 86.810646 254 254 254
-2.746234 -4.964394 85.559776 254 254 254
-2.684347 -4.491956 83.631668 254 254 254
-2.521014 -1.848266 78.542969 235 233 238
-2.507746 -1.670117 78.129585 221 214 224
-1.964832 -1.176587 61.214931 207 196 207
-1.960789 -1.042478 61.088974 189 167 180
-1.960789 -0.910791 61.088974 190 158 173
-1.956763 -0.777504 60.963535 212 176 192
-1.960789 -0.647417 61.088974 230 195 211
-1.960789 -0.515729 61.088974 223 186 203
-1.964832 -0.384834 61.214931 187 145 166
-1.968891 -0.253398 61.341408 163 117 140
-1.972968 -0.121417 61.468410 165 117 143
-1.981171 0.011134 61.723995 175 125 152
-1.997785 0.145399 62.241596 182 131 158
-1.985299 0.277824 61.852589 189 135 162
-1.981171 0.410302 61.723995 192 136 161
-1.997785 0.547915 62.241596 191 131 153
-2.001982 0.683520 62.372356 189 125 146
-1.989443 0.812851 61.981716 182 113 132
-1.997785 0.950431 62.241596 171 99 114
-1.993605 1.082334 62.111385 167 92 105
-1.997785 1.218775 62.241596 165 88 100
-1.993605 1.350116 62.111385 160 82 93
-1.993605 1.484007 62.111385 153 77 86
-1.993605 1.617898 62.111385 151 74 83
-1.993605 1.751790 62.111385 151 73 82
-2.001982 1.893604 62.372356 151 73 82
-1.993605 2.019572 62.111385 150 73 82
-1.997785 2.157978 62.241596 150 73 82
-2.006196 2.301801 62.503666 151 73 82
-2.010429 2.441678 62.635532 152 73 83
-2.006196 2.571275 62.503666 152 74 82
-2.006196 2.706012 62.503666 150 72 80
-1.997785 2.828837 62.241596 147 70 77
-1.997785 2.963009 62.241596 142 66 72
-1.997785 3.097181 62.241596 137 61 66
-1.993605 3.224593 62.111385 132 58 61
-1.993605 3.358484 62.111385 129 56 58
-2.001982 3.507049 62.372356 129 55 56
-2.040564 4.533952 63.574394 121 51 53
-2.062648 4.721549 64.262428 118 50 53
-2.053757 4.839128 63.985435 116 49 51
-2.071616 5.020338 64.541832 113 47 49
-2.067122 5.148276 64.401825 112 46 47
-2.058193 5.264266 64.123634 110 44 46
-2.062648 5.414189 64.262428 108 43 45
-2.062648 5.552718 64.262428 105 42 44
-2.058193 5.678954 64.123634 102 42 43
-2.062648 5.829774 64.262428 99 41 42
-2.067122 5.981248 64.401825 97 42 42
-2.071616 6.133381 64.541832 94 42 42
-2.071616 6.272512 64.541832 90 42 42
-2.076129 6.425611 64.682442 87 40 41
-2.160869 9.155001 67.322548 71 33 33
-2.160869 9.300126 67.322548 69 31 32
-2.165780 9.466717 67.475548 68 30 31
-2.190674 9.722656 68.251129 67 30 31
-2.200793 9.915371 68.566376 68 31 31
-2.205887 10.086471 68.725098 70 33 33
-2.211005 10.258366 68.884552 72 35 35
-2.205887 10.382768 68.725098 72 35 36
-2.216147 10.579896 69.044746 71 36 37
-2.216147 10.728734 69.044746 69 36 37
-2.211005 10.852333 68.884552 68 37 37
-2.211005 11.000825 68.884552 66 37 36
-1.844281 -11.009636 61.595940 171 141 147
-1.848115 -10.899468 61.723995 107 61 74
-1.851965 -10.788843 61.852589 94 39 56
-1.851965 -10.655509 61.852589 117 57 75
-1.844281 -10.478516 61.595940 137 74 90
-1.829102 -10.260586 61.088974 145 81 95
-1.836660 -10.170753 61.341408 150 87 98
-1.836660 -10.038522 61.341408 156 94 103
-1.836660 -9.906290 61.341408 164 103 110
-1.821605 -9.693944 60.838612 178 117 124
-1.825346 -9.582433 60.963535 194 133 140
-1.829102 -9.470462 61.088974 202 140 147
-1.821605 -9.300501 60.838612 192 129 139
-1.821605 -9.169353 60.838612 170 108 119
-1.821605 -9.038206 60.838612 156 95 108
-1.825346 -8.925348 60.963535 156 96 110
-1.821605 -8.775911 60.838612 156 99 113
-1.814170 -8.609479 60.590290 150 95 109
-1.817880 -8.496205 60.714195 146 94 108
-1.817880 -8.365326 60.714195 153 104 118
-1.817880 -8.234447 60.714195 166 119 133
-1.821605 -8.120173 60.838612 178 133 148
-1.821605 -7.989026 60.838612 187 142 160
-1.825346 -7.874013 60.963535 186 143 163
-1.821605 -7.726731 60.838612 181 140 162
-1.821605 -7.595583 60.838612 181 142 165
-1.821605 -7.464436 60.838612 192 158 179
-1.825346 -7.348346 60.963535 215 192 207
-1.829102 -7.231779 61.088974 236 224 232
-1.829102 -7.100091 61.088974 237 227 235
-1.829102 -6.968404 61.088974 228 216 228
-1.829102 -6.836717 61.088974 229 218 229
-1.829102 -6.705030 61.088974 223 215 226
-1.832873 -6.586896 61.214931 186 183 192
-1.836660 -6.468274 61.341408 140 139 147
-1.836660 -6.336042 61.341408 158 158 163
-1.836660 -6.203811 61.341408 217 218 219
-1.836660 -6.071579 61.341408 218 219 220
-1.836660 -5.939348 61.341408 203 203 204
-1.836660 -5.807117 61.341408 232 232 233
-1.829102 -5.651532 61.088974 254 254 254
-1.832873 -5.531226 61.214931 254 254 254
-1.836660 -5.410423 61.341408 254 254 254
-1.829102 -5.256470 61.088974 254 254 254
-1.832873 -5.135350 61.214931 252 253 253
-1.829102 -4.993096 61.088974 250 251 251
-1.832873 -4.871432 61.214931 251 251 251
-1.829102 -4.729721 61.088974 253 253 253
-2.701956 -6.208646 90.240860 255 255 255
-2.606872 -5.239427 87.065224 254 254 254
-2.561796 -4.964394 85.559776 254 254 254
-1.829102 -1.174166 61.088974 225 215 224
-1.829102 -1.042478 61.088974 199 178 190
-1.829102 -0.910791 61.088974 187 155 171
-1.825346 -0.777504 60.963535 209 174 192
-1.829102 -0.647417 61.088974 235 204 221
-1.829102 -0.515729 61.088974 231 201 219
-1.832873 -0.384834 61.214931 192 153 176
-1.836660 -0.253398 61.341408 163 117 145
-1.844281 -0.121669 61.595940 163 115 144
-1.851965 0.011157 61.852589 172 121 150
-1.863613 0.145399 62.241596 182 130 159
-1.855832 0.278404 61.981716 197 142 170
-1.851965 0.411157 61.852589 201 143 170
-1.863613 0.547915 62.241596 195 133 158
-1.867528 0.683520 62.372356 190 124 148
-1.859714 0.814551 62.111385 185 114 136
-1.867528 0.952427 62.372356 176 101 120
-1.867528 1.086881 62.372356 170 92 108
-1.867528 1.221335 62.372356 168 88 103
-1.863613 1.352947 62.241596 164 83 97
-1.863613 1.487118 62.241596 157 78 90
-1.859714 1.617898 62.111385 154 75 86
-1.859714 1.751790 62.111385 153 74 84
-1.867528 1.893604 62.372356 152 73 83
-1.859714 2.019572 62.111385 151 73 82
-1.863613 2.157978 62.241596 150 72 81
-1.871460 2.301801 62.503666 151 71 81
-1.875408 2.441678 62.635532 152 72 81
-1.867528 2.565873 62.372356 153 73 81
-1.867528 2.700327 62.372356 151 72 79
-1.863613 2.828837 62.241596 147 69 76
-1.863613 2.963009 62.241596 142 65 71
-1.859714 3.090702 62.111385 137 61 65
-1.859714 3.224593 62.111385 132 57 59
-1.855832 3.351473 61.981716 130 56 56
-1.867528 3.507049 62.372356 132 58 58
-1.903519 4.533952 63.574394 121 51 53
-1.924120 4.721549 64.262428 118 49 51
-1.915826 4.839128 63.985435 115 47 48
-1.932486 5.020338 64.541832 113 44 46
-1.928294 5.148276 64.401825 112 43 45
-1.919964 5.264266 64.123634 112 43 45
-1.924120 5.414189 64.262428 111 44 46
-1.924120 5.552718 64.262428 109 44 45
-1.924120 5.691246 64.262428 105 42 43
-1.924120 5.829774 64.262428 100 41 41
-1.928294 5.981248 64.401825 96 40 41
-1.928294 6.120077 64.401825 93 41 41
-1.928294 6.258905 64.401825 90 41 41
-1.932486 6.411643 64.541832 87 40 40
-1.911706 6.480334 63.847832 85 38 38
-2.015745 9.300126 67.322548 69 32 32
-2.020326 9.466717 67.475548 67 30 31
-2.043548 9.722656 68.251129 67 30 30
-2.052987 9.915371 68.566376 68 31 32
-2.052987 10.063176 68.566376 71 33 34
-2.052987 10.210982 68.566376 71 34 35
-2.043548 10.311162 68.251129 70 33 35
-2.048257 10.482386 68.408394 69 34 35
-2.052987 10.654401 68.566376 69 35 36
-2.048257 10.777317 68.408394 68 36 36
-1.711501 -10.876856 61.595940 100 54 62
-1.718632 -10.788843 61.852589 86 32 43
-1.718632 -10.655509 61.852589 112 51 64
-1.711501 -10.478516 61.595940 136 72 85
-1.693929 -10.239516 60.963535 146 81 92
-1.700914 -10.149782 61.214931 151 86 95
-1.704428 -10.038522 61.341408 154 90 98
-1.704428 -9.906290 61.341408 158 96 102
-1.687001 -9.674120 60.714195 166 105 111
-1.690458 -9.562797 60.838612 179 118 124
-1.693929 -9.451015 60.963535 188 127 134
-1.687001 -9.281482 60.714195 182 122 130
-1.687001 -9.150602 60.714195 166 107 117
-1.690458 -9.038206 60.838612 155 97 108
-1.690458 -8.907059 60.838612 156 99 111
-1.687001 -8.757964 60.714195 157 102 116
-1.683558 -8.609479 60.590290 152 98 112
-1.683558 -8.478867 60.590290 149 98 112
-1.683558 -8.348254 60.590290 159 109 123
-1.683558 -8.217642 60.590290 177 128 143
-1.687001 -8.103567 60.714195 195 147 164
-1.687001 -7.972688 60.714195 203 156 173
-1.690458 -7.857878 60.838612 192 145 165
-1.687001 -7.710929 60.714195 170 124 146
-1.687001 -7.580050 60.714195 151 108 130
-1.687001 -7.449171 60.714195 149 110 131
-1.690458 -7.333288 60.838612 176 145 162
-1.693929 -7.216929 60.963535 218 198 209
-1.693929 -7.085512 60.963535 241 229 237
-1.693929 -6.954095 60.963535 232 219 230
-1.693929 -6.822679 60.963535 215 201 213
-1.693929 -6.691262 60.963535 216 205 214
-1.697414 -6.573343 61.088974 206 200 208
-1.700914 -6.454937 61.214931 159 156 163
-1.700914 -6.322978 61.214931 155 153 157
-1.700914 -6.191020 61.214931 212 212 213
-1.700914 -6.059061 61.214931 221 220 222
-1.704428 -5.939348 61.341408 206 205 206
-1.700914 -5.795143 61.214931 233 233 233
-1.697414 -5.651532 61.088974 253 253 253
-1.700914 -5.531226 61.214931 252 252 252
-1.704428 -5.410423 61.341408 252 252 252
-1.697414 -5.256470 61.088974 252 253 252
-1.697414 -5.124783 61.088974 254 254 254
-1.697414 -4.993096 61.088974 254 254 254
-2.507427 -6.208646 90.240860 254 254 254
-2.426304 -5.819543 87.321304 254 254 254
-2.412115 -5.224107 86.810646 254 254 254
-1.690458 -1.300501 60.838612 244 235 245
-1.697414 -1.174166 61.088974 239 230 236
-1.700914 -1.044628 61.214931 211 190 201
-1.700914 -0.912669 61.214931 188 154 171
-1.700914 -0.780710 61.214931 199 162 181
-1.700914 -0.648752 61.214931 231 201 218
-1.704428 -0.517861 61.341408 237 212 228
-1.704428 -0.385629 61.341408 198 164 186
-1.711501 -0.254449 61.595940 161 115 144
-1.718632 -0.122176 61.852589 157 108 137
-1.722220 0.011181 61.981716 166 114 144
-1.733074 0.145705 62.372356 183 129 158
-1.729441 0.279571 62.241596 205 147 175
-1.725823 0.412878 62.111385 209 150 177
-1.733074 0.549066 62.372356 203 139 165
-1.736723 0.684959 62.503666 197 129 154
-1.729441 0.816259 62.241596 191 117 141
-1.736723 0.954433 62.503666 182 104 126
-1.736723 1.089169 62.503666 174 93 113
-1.736723 1.223906 62.503666 170 87 105
-1.733074 1.355789 62.372356 166 83 98
-1.729441 1.487118 62.241596 161 79 92
-1.729441 1.621290 62.241596 158 76 88
-1.725823 1.751790 62.111385 155 75 85
-1.729441 1.889634 62.241596 153 73 83
-1.725823 2.019572 62.111385 151 71 81
-1.733074 2.162512 62.372356 150 70 80
-1.736723 2.301801 62.503666 149 69 79
-1.736723 2.436538 62.503666 150 69 78
-1.729441 2.560494 62.241596 151 70 78
-1.729441 2.694666 62.241596 150 69 77
-1.725823 2.822919 62.111385 147 66 74
-1.725823 2.956811 62.111385 142 63 69
-1.722220 3.084249 61.981716 137 59 63
-1.722220 3.217861 61.981716 132 56 58
-1.718632 3.344491 61.852589 131 55 55
-1.729441 3.499697 62.241596 137 61 60
-1.729441 3.633869 62.241596 140 66 63
-1.729441 3.768041 62.241596 134 60 57
-1.740387 4.061931 62.635532 129 56 55
-1.740387 4.196952 62.635532 128 56 56
-1.751472 4.359566 63.034485 125 54 55
-1.762699 4.524264 63.438553 122 51 53
-1.781735 4.711351 64.123634 119 48 49
-1.777895 4.839128 63.985435 116 44 46
-1.793355 5.020338 64.541832 113 41 42
-1.789465 5.148276 64.401825 112 39 41
-1.781735 5.264266 64.123634 114 41 42
-1.785592 5.414189 64.262428 117 46 47
-1.785592 5.552718 64.262428 118 50 50
-1.785592 5.691246 64.262428 111 46 45
-1.789465 5.842420 64.401825 101 40 39
-1.789465 5.981248 64.401825 95 38 38
-1.789465 6.120077 64.401825 92 38 39
-1.785592 6.245358 64.262428 90 39 40
-1.793355 6.411643 64.541832 87 39 39
-1.777895 6.494300 63.985435 86 38 38
-1.874871 9.175808 67.475548 71 35 35
-1.874871 9.321262 67.475548 69 33 33
-1.879142 9.488281 67.629250 67 32 31
-1.892072 9.700356 68.094589 66 30 31
-1.896422 9.869782 68.251129 68 31 32
-1.896422 10.016910 68.251129 70 34 34
-1.896422 10.164036 68.251129 70 34 35
-1.887742 10.263971 67.938766 68 33 34
-1.887742 10.410424 67.938766 67 33 34
-1.887742 10.556877 67.938766 67 34 35
-1.883432 10.678894 67.783661 67 34 35
-1.582003 -10.766413 61.723995 98 42 50
-1.585299 -10.655509 61.852589 114 53 61
-1.578721 -10.478516 61.595940 137 73 81
-1.562512 -10.239516 60.963535 147 82 90
-1.565727 -10.128899 61.088974 151 85 93
-1.568955 -10.017824 61.214931 154 89 96
-1.568955 -9.885865 61.214931 157 94 100
-1.556121 -9.674120 60.714195 165 103 109
-1.556121 -9.543241 60.714195 177 116 122
-1.559310 -9.431648 60.838612 182 122 128
-1.552946 -9.262540 60.590290 176 117 124
-1.556121 -9.150602 60.714195 164 107 115
-1.556121 -9.019723 60.714195 154 99 109
-1.556121 -8.888844 60.714195 153 99 110
-1.556121 -8.757964 60.714195 153 101 113
-1.549783 -8.591944 60.466888 149 98 111
-1.552946 -8.478867 60.590290 147 96 111
-1.549783 -8.331251 60.466888 164 114 130
-1.552946 -8.217642 60.590290 195 149 165
-1.556121 -8.103567 60.714195 220 177 193
-1.556121 -7.972688 60.714195 220 176 193
-1.559310 -7.857878 60.838612 195 147 166
-1.556121 -7.710929 60.714195 163 115 134
-1.556121 -7.580050 60.714195 139 93 112
-1.552946 -7.433969 60.590290 133 92 109
-1.559310 -7.333288 60.838612 159 123 139
-1.562512 -7.216929 60.963535 201 173 185
-1.559310 -7.070993 60.838612 222 203 213
-1.559310 -6.939846 60.838612 214 196 207
-1.559310 -6.808698 60.838612 200 180 193
-1.559310 -6.677550 60.838612 209 193 204
-1.562512 -6.559845 60.963535 221 211 219
-1.565727 -6.441656 61.088974 197 190 198
-1.565727 -6.309968 61.088974 188 185 189
-1.565727 -6.178281 61.088974 223 223 224
-1.565727 -6.046594 61.088974 227 226 228
-1.568955 -5.927102 61.214931 211 210 213
-1.568955 -5.795143 61.214931 231 230 232
-1.565727 -5.651532 61.088974 251 251 251
-1.568955 -5.531226 61.214931 250 250 250
-1.572197 -5.410423 61.341408 243 243 243
-1.565727 -5.256470 61.088974 242 242 242
-2.271473 -6.288491 88.624603 254 254 254
-2.312898 -6.208646 90.240860 254 254 254
-2.244671 -5.836709 87.578888 254 254 254
-2.218494 -5.582054 86.557556 254 254 254
-2.271473 -5.524312 88.624603 254 254 254
-2.212045 -5.193734 86.305939 254 254 254
-2.155647 -4.880013 84.105499 254 254 254
-1.565727 -1.437540 61.088974 241 226 241
-1.562512 -1.303172 60.963535 247 236 247
-1.568955 -1.176587 61.214931 245 234 241
-1.572197 -1.046786 61.341408 217 192 205
-1.572197 -0.914555 61.341408 180 144 161
-1.572197 -0.782323 61.341408 183 145 163
-1.575452 -0.651438 61.468410 223 191 208
-1.578721 -0.520009 61.595940 238 211 227
-1.578721 -0.387229 61.595940 206 171 192
-1.585299 -0.255509 61.852589 168 121 148
-1.588608 -0.122431 61.981716 155 104 132
-1.595269 0.011227 62.241596 160 107 134
-1.598621 0.145705 62.372356 180 124 150
-1.598621 0.280159 62.372356 204 146 171
-1.595269 0.413743 62.241596 212 152 176
-1.601986 0.550222 62.503666 212 147 172
-1.601986 0.684959 62.503666 208 138 163
-1.598621 0.817974 62.372356 194 119 143
-1.601986 0.954433 62.503666 182 102 125
-1.605366 1.091467 62.635532 175 91 113
-1.605366 1.226488 62.635532 169 84 102
-1.601986 1.358643 62.503666 166 80 96
-1.595269 1.487118 62.241596 163 78 92
-1.598621 1.624696 62.372356 159 76 87
-1.595269 1.755462 62.241596 156 75 84
-1.595269 1.889634 62.241596 152 71 81
-1.591932 2.019572 62.111385 149 69 78
-1.598621 2.162512 62.372356 147 66 76
-1.598621 2.296965 62.372356 146 65 75
-1.598621 2.431419 62.372356 146 65 73
-1.591932 2.555137 62.111385 148 66 74
-1.591932 2.689028 62.111385 148 66 74
-1.588608 2.817026 61.981716 145 63 72
-1.585299 2.944491 61.852589 142 60 68
-1.585299 3.077824 61.852589 137 57 63
-1.585299 3.211157 61.852589 133 54 57
-1.585299 3.344491 61.852589 133 54 55
-1.591932 3.492375 62.111385 138 61 60
-1.591932 3.626267 62.111385 142 65 63
-1.588608 3.752308 61.981716 134 59 56
-1.595269 3.902213 62.241596 129 55 52
-1.601986 4.053380 62.503666 131 58 56
-1.601986 4.188117 62.503666 131 58 58
-1.622481 4.514617 63.303288 124 51 52
-1.639964 4.701197 63.985435 121 47 48
-1.636437 4.828722 63.847832 117 42 43
-1.650636 5.009448 64.401825 114 38 39
-1.650636 5.148276 64.401825 113 36 37
-1.643506 5.264266 64.123634 115 38 38
-1.647063 5.414189 64.262428 123 49 48
-1.647063 5.552718 64.262428 131 60 58
-1.647063 5.691246 64.262428 120 54 52
-1.650636 5.842420 64.401825 102 40 38
-1.654225 5.994251 64.541832 93 35 35
-1.650636 6.120077 64.401825 91 36 36
-1.647063 6.245358 64.262428 89 37 38
-1.654225 6.411643 64.541832 88 37 38
-1.757375 9.028535 68.566376 76 37 38
-1.741289 9.092346 67.938766 74 37 37
-1.729417 9.175808 67.475548 72 36 36
-1.729417 9.321262 67.475548 69 35 34
-1.729417 9.466717 67.475548 67 33 33
-1.741289 9.678159 67.938766 66 31 32
-1.745283 9.847146 68.094589 67 32 33
-1.741289 9.971066 67.938766 68 34 35
-1.737314 10.094419 67.783661 69 34 35
-1.733356 10.217211 67.629250 68 34 35
-1.729417 10.339444 67.475548 67 34 35
-1.733356 10.508782 67.629250 67 34 35
-1.454997 -10.677754 61.981716 120 56 62
-1.445941 -10.478516 61.595940 140 74 79
-1.431095 -10.239516 60.963535 148 82 88
-1.434040 -10.128899 61.088974 150 84 91
-1.436997 -10.017824 61.214931 153 88 95
-1.434040 -9.865523 61.088974 160 95 102
-1.425242 -9.674120 60.714195 173 111 117
-1.428163 -9.562797 60.838612 186 124 131
-1.428163 -9.431648 60.838612 185 124 130
-1.422333 -9.262540 60.590290 173 114 120
-1.425242 -9.150602 60.714195 163 107 114
-1.425242 -9.019723 60.714195 156 102 110
-1.425242 -8.888844 60.714195 152 100 110
-1.422333 -8.740091 60.590290 149 99 110
-1.422333 -8.609479 60.590290 144 95 108
-1.422333 -8.478867 60.590290 142 94 108
-1.422333 -8.348254 60.590290 166 118 134
-1.422333 -8.217642 60.590290 210 168 184
-1.425242 -8.103567 60.714195 239 202 218
-1.425242 -7.972688 60.714195 231 192 207
-1.431095 -7.874013 60.963535 198 151 166
-1.425242 -7.710929 60.714195 164 115 130
-1.425242 -7.580050 60.714195 141 96 111
-1.422333 -7.433969 60.590290 138 95 109
-1.431095 -7.348346 60.963535 159 121 134
-1.428163 -7.202140 60.838612 187 154 166
-1.428163 -7.070993 60.838612 195 167 177
-1.428163 -6.939846 60.838612 188 163 174
-1.428163 -6.808698 60.838612 185 162 175
-1.428163 -6.677550 60.838612 193 173 186
-1.428163 -6.546403 60.838612 214 199 211
-1.431095 -6.428428 60.963535 229 220 228
-1.434040 -6.309968 61.088974 234 231 234
-1.434040 -6.178281 61.088974 244 244 244
-1.434040 -6.046594 61.088974 236 235 237
-1.436997 -5.927102 61.214931 216 214 217
-1.436997 -5.795143 61.214931 221 219 223
-1.434040 -5.651532 61.088974 242 241 243
-1.436997 -5.531226 61.214931 246 246 247
-1.439966 -5.410423 61.341408 235 235 235
-2.124827 -6.227575 90.515984 255 255 255
-2.086657 -5.924086 88.889946 254 254 254
-2.049833 -5.631308 87.321304 254 254 254
-2.086657 -5.540852 88.889946 254 254 254
-2.031905 -5.208876 86.557556 254 254 254
-1.991267 -4.921842 84.826408 255 255 255
-1.436997 -1.440504 61.214931 228 209 229
-1.434040 -1.305853 61.088974 241 226 241
-1.436997 -1.176587 61.214931 243 225 238
-1.442947 -1.048954 61.468410 213 184 201
-1.442947 -0.916448 61.468410 173 137 154
-1.442947 -0.783943 61.468410 180 140 159
-1.445941 -0.652789 61.595940 220 183 202
-1.451965 -0.522176 61.852589 233 196 216
-1.451965 -0.388843 61.852589 213 170 192
-1.458040 -0.256579 62.111385 187 137 162
-1.461097 -0.122945 62.241596 163 110 135
-1.464167 0.011251 62.372356 154 98 122
-1.467249 0.146012 62.503666 171 113 135
-1.464167 0.280159 62.372356 196 136 157
-1.464167 0.414612 62.372356 208 145 167
-1.467249 0.550222 62.503666 216 150 173
-1.470345 0.686404 62.635532 212 141 164
-1.467249 0.819696 62.503666 189 114 136
-1.470345 0.956446 62.635532 176 96 117
-1.473453 1.093775 62.767956 172 88 108
-1.470345 1.226488 62.635532 166 80 97
-1.470345 1.361509 62.635532 164 77 92
-1.464167 1.490243 62.372356 163 77 89
-1.467249 1.628117 62.503666 160 76 85
-1.464167 1.759150 62.372356 155 74 81
-1.464167 1.893604 62.372356 150 70 77
-1.461097 2.023806 62.241596 146 65 74
-1.467249 2.167064 62.503666 144 63 72
-1.464167 2.296965 62.372356 143 62 71
-1.464167 2.431419 62.372356 142 61 70
-1.451965 2.544491 61.852589 144 62 71
-1.454997 2.683414 61.981716 144 62 71
-1.451965 2.811157 61.852589 143 60 69
-1.451965 2.944491 61.852589 140 58 66
-1.451965 3.077824 61.852589 137 55 61
-1.448947 3.204481 61.723995 134 53 57
-1.448947 3.337537 61.723995 132 54 54
-1.454997 3.485085 61.981716 134 57 55
-1.454997 3.618696 61.981716 135 58 56
-1.451965 3.744491 61.852589 132 56 54
-1.458040 3.894049 62.111385 130 55 54
-1.464167 4.044865 62.372356 132 58 57
-1.467249 4.188117 62.503666 132 58 58
-1.482858 4.505012 63.168602 125 51 53
-1.502033 4.701197 63.985435 122 47 49
-1.498803 4.828722 63.847832 118 42 44
-1.511808 5.009448 64.401825 116 38 40
-1.511808 5.148276 64.401825 115 35 37
-1.505277 5.264266 64.123634 115 36 36
-1.508535 5.414189 64.262428 126 50 48
-1.508535 5.552718 64.262428 140 68 66
-1.508535 5.691246 64.262428 128 61 59
-1.511808 5.842420 64.401825 103 41 38
-1.515094 5.994251 64.541832 92 34 32
-1.511808 6.120077 64.401825 91 35 35
-1.508535 6.245358 64.262428 89 36 37
-1.515094 6.411643 64.541832 90 37 38
-1.620798 9.091524 69.044746 76 37 38
-1.598494 9.113200 68.094589 74 37 38
-1.583962 9.175808 67.475548 71 37 37
-1.580370 9.300126 67.322548 69 35 36
-1.583962 9.466717 67.475548 67 34 34
-1.591195 9.656063 67.783661 66 33 34
-1.594836 9.824612 67.938766 67 33 35
-1.594836 9.971066 67.938766 68 35 37
-1.587570 10.071424 67.629250 69 35 37
-1.583962 10.193990 67.475548 68 35 37
-1.580370 10.315999 67.322548 68 35 37
-1.315891 -10.500300 61.723995 140 74 78
-1.299678 -10.239516 60.963535 147 80 85
-1.302353 -10.128899 61.088974 149 82 88
-1.302353 -9.997211 61.088974 151 85 92
-1.305038 -9.885865 61.214931 161 96 103
-1.297015 -9.693944 60.838612 182 119 125
-1.297015 -9.562797 60.838612 198 135 142
-1.299678 -9.451015 60.963535 189 128 134
-1.294363 -9.281482 60.714195 170 112 118
-1.294363 -9.150602 60.714195 161 105 112
-1.294363 -9.019723 60.714195 158 105 112
-1.294363 -8.888844 60.714195 154 103 113
-1.294363 -8.757964 60.714195 148 100 111
-1.291721 -8.609479 60.590290 140 93 106
-1.291721 -8.478867 60.590290 139 93 107
-1.291721 -8.348254 60.590290 167 121 137
-1.291721 -8.217642 60.590290 214 175 191
-1.294363 -8.103567 60.714195 244 210 225
-1.294363 -7.972688 60.714195 236 197 211
-1.297015 -7.857878 60.838612 204 157 171
-1.291721 -7.695193 60.590290 170 122 135
-1.294363 -7.580050 60.714195 148 103 115
-1.291721 -7.433969 60.590290 145 103 114
-1.297015 -7.333288 60.838612 159 123 132
-1.297015 -7.202140 60.838612 179 146 156
-1.294363 -7.056533 60.714195 190 159 170
-1.294363 -6.925653 60.714195 189 161 174
-1.297015 -6.808698 60.838612 181 157 171
-1.294363 -6.663895 60.714195 173 153 168
-1.297015 -6.546403 60.838612 195 181 193
-1.299678 -6.428428 60.963535 236 229 235
-1.302353 -6.309968 61.088974 254 253 254
-1.302353 -6.178281 61.088974 254 254 254
-1.302353 -6.046594 61.088974 246 245 247
-1.305038 -5.927102 61.214931 226 223 228
-1.305038 -5.795143 61.214931 215 211 218
-1.305038 -5.663185 61.214931 232 230 234
-1.305038 -5.531226 61.214931 246 246 247
-1.953529 -6.304459 91.633461 254 254 254
-1.912216 -5.977778 89.695595 254 254 254
-1.878170 -5.681438 88.098640 254 254 254
-1.900731 -5.557491 89.156883 254 254 254
-1.856139 -5.239427 87.065224 254 254 254
-1.824044 -4.964394 85.559776 254 254 254
-1.889383 -4.951178 88.624603 254 254 254
-1.867090 -4.703966 87.578888 254 254 254
-1.307734 -1.840175 61.341408 217 209 220
-1.307734 -1.707943 61.341408 205 196 210
-1.305038 -1.440504 61.214931 203 185 208
-1.302353 -1.305853 61.088974 231 214 232
-1.307734 -1.179018 61.341408 240 222 237
-1.313161 -1.051130 61.595940 218 195 209
-1.315891 -0.920259 61.723995 192 163 177
-1.315891 -0.787203 61.723995 197 164 179
-1.321385 -0.656878 61.981716 212 172 192
-1.324149 -0.524361 62.111385 208 163 185
-1.324149 -0.390470 62.111385 202 152 176
-1.326925 -0.257116 62.241596 194 140 163
-1.329713 -0.123203 62.372356 169 113 135
-1.329713 0.011251 62.372356 153 95 115
-1.332512 0.146012 62.503666 165 106 124
-1.329713 0.280159 62.372356 182 119 138
-1.329713 0.414612 62.372356 193 128 147
-1.332512 0.550222 62.503666 206 139 160
-1.335324 0.686404 62.635532 202 131 152
-1.332512 0.819696 62.503666 178 103 124
-1.335324 0.956446 62.635532 170 90 110
-1.338147 1.093775 62.767956 170 87 105
-1.338147 1.229081 62.767956 165 79 96
-1.338147 1.364388 62.767956 163 77 89
-1.332512 1.493380 62.503666 162 77 86
-1.335324 1.631552 62.635532 159 76 83
-1.332512 1.762854 62.503666 155 73 79
-1.332512 1.897591 62.503666 149 68 75
-1.329713 2.028058 62.372356 144 63 71
-1.335324 2.171636 62.635532 142 61 69
-1.332512 2.301801 62.503666 140 60 68
-1.332512 2.436538 62.503666 140 59 68
-1.321385 2.549803 61.981716 140 59 68
-1.324149 2.689028 62.111385 141 59 68
-1.318632 2.811157 61.852589 140 58 66
-1.318632 2.944491 61.852589 139 56 64
-1.318632 3.077824 61.852589 136 54 61
-1.315891 3.204481 61.723995 134 53 57
-1.318632 3.344491 61.852589 132 53 55
-1.318632 3.477824 61.852589 131 54 53
-1.318632 3.611157 61.852589 131 54 53
-1.315891 3.736706 61.723995 130 54 54
-1.321385 3.885920 61.981716 130 55 55
-1.326925 4.036385 62.241596 130 57 56
-1.329713 4.179318 62.372356 130 56 56
-1.338147 4.341132 62.767956 128 54 55
-1.343829 4.495447 63.034485 126 51 53
-1.361169 4.691087 63.847832 123 48 50
-1.358248 4.818359 63.710819 121 44 45
-1.372979 5.009448 64.401825 119 40 41
-1.372979 5.148276 64.401825 116 37 38
-1.367048 5.264266 64.123634 114 36 37
-1.370007 5.414189 64.262428 125 49 48
-1.370007 5.552718 64.262428 137 65 64
-1.372979 5.703591 64.401825 125 59 56
-1.372979 5.842420 64.401825 103 40 38
-1.375964 5.994251 64.541832 92 34 33
-1.372979 6.120077 64.401825 91 34 35
-1.953529 10.880727 91.633461 84 38 37
-1.850712 10.495192 86.810646 82 37 37
-1.478840 9.134008 69.367386 75 37 38
-1.455042 9.134151 68.251129 73 37 38
-1.435246 9.155001 67.322548 71 37 38
-1.435246 9.300126 67.322548 69 36 36
-1.445076 9.656063 67.783661 67 34 36
-1.448383 9.824612 67.938766 67 35 37
-1.445076 9.948300 67.783661 69 36 38
-1.441784 10.071424 67.629250 69 37 39
-1.438508 10.193990 67.475548 70 37 39
-1.180380 -10.478516 61.595940 141 74 79
-1.168262 -10.239516 60.963535 147 79 85
-1.170665 -10.128899 61.088974 148 81 88
-1.170665 -9.997211 61.088974 150 83 91
-1.170665 -9.865523 61.088974 160 94 103
-1.165868 -9.693944 60.838612 186 121 129
-1.168262 -9.582433 60.963535 205 141 148
-1.168262 -9.451015 60.963535 194 131 137
-1.163483 -9.281482 60.714195 171 110 117
-1.165868 -9.169353 60.838612 162 104 112
-1.165868 -9.038206 60.838612 160 107 115
-1.165868 -8.907059 60.838612 156 106 116
-1.163483 -8.757964 60.714195 149 101 113
-1.161109 -8.609479 60.590290 140 94 108
-1.163483 -8.496205 60.714195 141 95 111
-1.161109 -8.348254 60.590290 169 125 142
-1.161109 -8.217642 60.590290 215 178 195
-1.163483 -8.103567 60.714195 244 210 227
-1.163483 -7.972688 60.714195 236 196 211
-1.168262 -7.874013 60.963535 205 159 173
-1.161109 -7.695193 60.590290 174 128 140
-1.163483 -7.580050 60.714195 155 111 121
-1.161109 -7.433969 60.590290 151 111 120
-1.165868 -7.333288 60.838612 163 127 136
-1.168262 -7.216929 60.963535 187 155 165
-1.163483 -7.056533 60.714195 209 180 191
-1.163483 -6.925653 60.714195 208 182 196
-1.165868 -6.808698 60.838612 183 160 177
-1.165868 -6.677550 60.838612 168 148 165
-1.165868 -6.546403 60.838612 193 180 193
-1.168262 -6.428428 60.963535 237 233 237
-1.170665 -6.309968 61.088974 254 254 254
-1.170665 -6.178281 61.088974 254 254 254
-1.173079 -6.059061 61.214931 252 251 252
-1.173079 -5.927102 61.214931 239 236 240
-1.173079 -5.795143 61.214931 227 223 230
-1.173079 -5.663185 61.214931 236 233 239
-1.175503 -5.542654 61.341408 249 248 250
-1.755998 -6.304459 91.633461 254 254 254
-1.718862 -5.977778 89.695595 254 254 254
-1.678299 -5.647919 87.578888 254 254 254
-1.698338 -5.524312 88.624603 254 254 254
-1.673363 -5.254837 87.321304 254 254 254
-1.649111 -4.993173 86.055771 254 254 254
-1.703423 -4.966002 88.889946 255 255 255
-1.693284 -4.745966 88.360840 254 254 254
-1.173079 -1.836380 61.214931 199 186 205
-1.173079 -1.704422 61.214931 173 160 183
-1.173079 -1.572463 61.214931 169 154 180
-1.173079 -1.440504 61.214931 201 187 210
-1.170665 -1.305853 61.088974 235 224 239
-1.175503 -1.179018 61.341408 246 238 246
-1.180380 -1.051130 61.595940 238 228 235
-1.185299 -0.922176 61.852589 229 217 222
-1.185299 -0.788843 61.852589 218 197 207
-1.187773 -0.656878 61.981716 189 152 170
-1.192753 -0.525460 62.241596 166 118 142
-1.190258 -0.390470 62.111385 173 119 144
-1.192753 -0.257116 62.241596 178 120 144
-1.192753 -0.122945 62.241596 165 105 127
-1.195259 0.011251 62.372356 160 99 117
-1.197775 0.146012 62.503666 166 104 121
-1.195259 0.280159 62.372356 166 103 119
-1.192753 0.413743 62.241596 170 104 122
-1.195259 0.549066 62.372356 183 115 134
-1.195259 0.683520 62.372356 182 110 129
-1.197775 0.819696 62.503666 169 93 113
-1.197775 0.954433 62.503666 167 87 106
-1.200302 1.091467 62.635532 168 86 103
-1.200302 1.226488 62.635532 164 79 93
-1.202840 1.364388 62.767956 160 75 85
-1.197775 1.493380 62.503666 160 75 82
-1.200302 1.631552 62.635532 158 75 81
-1.200302 1.766573 62.635532 154 73 78
-1.200302 1.901594 62.635532 149 68 74
-1.197775 2.032327 62.503666 143 62 69
-1.202840 2.176227 62.767956 140 60 68
-1.200302 2.306657 62.635532 138 58 66
-1.200302 2.441678 62.635532 137 57 65
-1.192753 2.560494 62.241596 137 56 65
-1.192753 2.694666 62.241596 138 56 64
-1.187773 2.817026 61.981716 138 56 64
-1.187773 2.950638 61.981716 137 56 63
-1.185299 3.077824 61.852589 136 55 61
-1.185299 3.211157 61.852589 134 55 59
-1.185299 3.344491 61.852589 133 55 58
-1.187773 3.485085 61.981716 131 54 56
-1.185299 3.611157 61.852589 129 53 54
-1.182834 3.736706 61.723995 128 54 54
-1.187773 3.885920 61.981716 128 54 54
-1.192753 4.036385 62.241596 127 54 54
-1.195259 4.179318 62.372356 126 53 54
-1.202840 4.341132 62.767956 126 52 53
-1.207948 4.495447 63.034485 125 51 52
-1.220909 4.681020 63.710819 124 50 50
-1.220909 4.818359 63.710819 122 47 47
-1.234150 5.009448 64.401825 119 43 43
-1.234150 5.148276 64.401825 116 39 40
-1.228819 5.264266 64.123634 114 38 39
-1.231479 5.414189 64.262428 119 44 46
-1.231479 5.552718 64.262428 123 53 53
-1.234150 5.703591 64.401825 115 49 48
-1.234150 5.842420 64.401825 101 39 39
-1.236833 5.994251 64.541832 94 36 36
-1.231479 6.106830 64.262428 92 35 36
-1.607185 10.320213 83.867912 79 35 37
-1.329307 9.134008 69.367386 75 36 38
-1.304916 9.113200 68.094589 72 36 38
-1.287202 9.134289 67.170235 70 36 38
-1.253179 9.033823 65.394806 69 36 37
-1.298957 9.802181 67.783661 67 36 39
-1.295999 9.925639 67.629250 68 37 39
-1.293053 10.048535 67.475548 69 38 40
-1.036845 -10.239516 60.963535 149 80 87
-1.038978 -10.128899 61.088974 151 83 91
-1.038978 -9.997211 61.088974 152 85 94
-1.038978 -9.865523 61.088974 161 95 104
-1.036845 -9.713849 60.963535 185 119 128
-1.036845 -9.582433 60.963535 203 139 145
-1.036845 -9.451015 60.963535 194 130 136
-1.034720 -9.300501 60.838612 174 112 119
-1.034720 -9.169353 60.838612 168 109 116
-1.034720 -9.038206 60.838612 166 110 118
-1.034720 -8.907059 60.838612 158 107 117
-1.032604 -8.757964 60.714195 149 101 114
-1.032604 -8.627085 60.714195 141 95 110
-1.032604 -8.496205 60.714195 142 97 114
-1.032604 -8.365326 60.714195 170 127 145
-1.030497 -8.217642 60.590290 215 180 197
-1.032604 -8.103567 60.714195 243 215 230
-1.032604 -7.972688 60.714195 232 200 212
-1.036845 -7.874013 60.963535 197 154 167
-1.032604 -7.710929 60.714195 168 122 135
-1.032604 -7.580050 60.714195 157 114 125
-1.032604 -7.449171 60.714195 159 119 129
-1.036845 -7.348346 60.963535 175 141 151
-1.036845 -7.216929 60.963535 207 177 188
-1.034720 -7.070993 60.838612 229 204 217
-1.034720 -6.939846 60.838612 216 193 209
-1.036845 -6.822679 60.963535 179 159 178
-1.036845 -6.691262 60.963535 173 156 175
-1.036845 -6.559845 60.963535 212 202 214
-1.036845 -6.428428 60.963535 246 244 247
-1.041120 -6.322978 61.214931 254 254 254
-1.041120 -6.191020 61.214931 254 254 254
-1.041120 -6.059061 61.214931 254 254 254
-1.041120 -5.927102 61.214931 250 249 251
-1.041120 -5.795143 61.214931 246 243 247
-1.043271 -5.674885 61.341408 248 245 249
-1.045431 -5.554130 61.468410 252 251 252
-1.047600 -5.432872 61.595940 248 248 249
-1.525509 -6.171132 89.695595 254 254 254
-1.507294 -5.906402 88.624603 254 254 254
-1.476443 -5.598376 86.810646 254 254 254
-1.493915 -5.475280 87.837997 254 254 254
-1.485128 -5.254837 87.321304 254 254 254
-1.467859 -5.007688 86.305939 254 254 254
-1.511806 -4.966002 88.889946 254 254 254
