ply
format ascii 1.0
element vertex 1178
property float x
property float y
property float z
property uchar red
property uchar green
property uchar blue
end_header
-2.389216 -5.554634 58.674393 215 83 60
-2.398697 -5.449691 58.907227 215 84 59
-2.393947 -5.312167 58.790577 215 86 59
-2.408254 -5.216424 59.141918 216 87 59
-2.447254 -5.171345 60.099682 217 89 59
-2.417887 -4.981289 59.378483 219 90 59
-2.403466 -4.824343 59.024338 220 91 60
-2.403466 -4.697106 59.024338 221 92 60
-2.403466 -4.569870 59.024338 222 93 60
-2.403466 -4.442633 59.024338 223 94 60
-2.384504 -4.281350 58.558662 223 93 61
-2.375134 -4.138791 58.328571 223 93 62
-2.384504 -4.028885 58.558662 223 93 63
-2.379810 -3.894969 58.443390 223 92 65
-2.375134 -3.761581 58.328571 223 89 68
-2.338382 -3.579583 57.425999 223 86 69
-2.320429 -3.429260 56.985111 223 82 69
-2.302749 -3.281228 56.550938 223 78 68
-2.281025 -3.129518 56.017437 221 74 67
-2.298371 -3.031644 56.443428 218 71 65
-2.302749 -2.915513 56.550938 215 69 62
-2.294010 -2.783007 56.336323 210 67 59
-2.294010 -2.661565 56.336323 207 66 58
-2.294010 -2.540123 56.336323 204 66 60
-2.289665 -2.414099 56.229626 199 65 61
-2.294010 -2.297238 56.336323 194 64 62
-2.294010 -2.175796 56.336323 202 80 80
-2.294010 -2.054354 56.336323 224 116 118
-2.294010 -1.932912 56.336323 233 137 139
-2.298371 -1.814914 56.443428 211 111 112
-2.302749 -1.696466 56.550938 194 87 86
-2.302749 -1.574561 56.550938 212 109 105
-2.307144 -1.455428 56.658859 238 145 139
-2.302749 -1.330752 56.550938 248 162 153
-2.307144 -1.211154 56.658859 250 164 154
-2.307144 -1.089016 56.658859 252 160 155
-2.311555 -0.968728 56.767193 252 159 158
-2.311555 -0.846357 56.767193 252 157 162
-2.311555 -0.723986 56.767193 248 144 156
-2.315984 -0.602767 56.875942 245 142 160
-2.311555 -0.479244 56.767193 249 169 187
-2.311555 -0.356873 56.767193 253 178 193
-2.307144 -0.234054 56.658859 253 155 164
-2.311555 -0.112131 56.767193 254 141 141
-2.311555 0.010240 56.767193 254 143 135
-2.311555 0.132611 56.767193 254 142 127
-2.315984 0.255470 56.875942 254 135 116
-2.311555 0.377353 56.767193 254 130 110
-2.315984 0.500681 56.875942 254 131 111
-2.311555 0.622095 56.767193 254 133 113
-2.311555 0.744466 56.767193 253 129 109
-2.315984 0.868497 56.875942 253 126 106
-2.315984 0.991102 56.875942 253 127 107
-2.315984 1.113708 56.875942 253 128 109
-2.311555 1.233949 56.767193 254 136 119
-2.315984 1.358919 56.875942 254 140 124
-2.320429 1.484367 56.985111 250 130 115
-2.320429 1.607208 56.985111 248 122 108
-2.324891 1.733376 57.094696 246 122 109
-2.324891 1.856453 57.094696 244 123 108
-2.324891 1.979530 57.094696 243 128 112
-2.329371 2.106658 57.204704 246 139 121
-2.329371 2.229972 57.204704 246 146 129
-2.329371 2.353286 57.204704 244 148 132
-2.333868 2.481381 57.315140 236 138 122
-2.329371 2.599914 57.204704 229 126 110
-2.333868 2.728485 57.315140 236 145 129
-2.333868 2.852038 57.315140 250 178 162
-2.333868 2.975590 57.315140 253 178 163
-2.338382 3.105136 57.425999 245 149 134
-2.338382 3.228927 57.425999 231 118 103
-2.338382 3.352719 57.425999 227 114 99
-2.338382 3.476510 57.425999 240 150 135
-2.338382 3.600301 57.425999 252 193 177
-2.338382 3.724092 57.425999 254 195 178
-2.333868 3.840455 57.315140 248 160 139
-2.333868 3.964007 57.315140 230 110 86
-2.333868 4.087559 57.315140 216 91 64
-2.333868 4.211111 57.315140 229 134 105
-2.333868 4.334663 57.315140 243 170 140
-2.324891 4.441068 57.094696 234 143 112
-2.329371 4.572939 57.204704 226 112 82
-2.333868 4.705319 57.315140 234 118 88
-2.333868 4.828872 57.315140 242 129 101
-2.338382 4.962003 57.425999 243 133 105
-2.342913 5.095650 57.537292 245 137 110
-2.356615 5.250206 57.873768 249 143 117
-2.356615 5.374962 57.873768 250 145 120
-2.365838 5.521244 58.100277 250 145 120
-2.365838 5.646488 58.100277 250 146 123
-2.365838 5.771733 58.100277 251 153 131
-2.370477 5.908540 58.214199 253 168 146
-2.361217 6.010460 57.986801 251 174 150
-2.365838 6.147467 58.100277 239 153 125
-2.361217 6.260460 57.986801 227 130 97
-2.356615 6.373013 57.873768 232 143 104
-2.356615 6.497769 57.873768 247 179 134
-2.352030 6.609641 57.761173 251 194 145
-2.356615 6.747282 57.873768 238 171 120
-2.352030 6.858668 57.761173 224 141 92
-2.352030 6.983182 57.761173 224 136 92
-2.352030 7.107696 57.761173 233 145 105
-2.347463 7.218166 57.649014 235 148 113
-2.356615 7.371063 57.873768 235 148 117
-2.347463 7.466710 57.649014 234 148 119
-2.356615 7.620576 57.873768 230 146 119
-2.370477 7.790893 58.214199 222 140 113
-2.375134 7.931936 58.328571 214 134 108
-2.384504 8.089458 58.558662 208 129 105
-2.398697 8.264594 58.907227 200 123 101
-2.403466 8.408261 59.024338 190 115 95
-2.403466 8.535498 59.024338 185 111 92
-2.413061 8.697316 59.259964 186 114 96
-2.408254 8.807481 59.141918 187 118 100
-2.413061 8.952806 59.259964 183 117 99
-2.413061 9.080550 59.259964 175 112 95
-2.432482 9.282405 59.736904 164 106 90
-2.447254 9.468331 60.099682 149 98 83
-2.452218 9.617353 60.221588 127 83 71
-2.472277 10.088661 60.714195 72 42 43
-2.472277 10.219541 60.714195 70 43 47
-2.472277 10.350420 60.714195 73 46 51
-2.472277 10.481299 60.714195 77 50 56
-2.482430 10.655761 60.963535 76 47 54
-2.487538 10.809374 61.088974 71 41 48
-2.487538 10.941061 61.088974 68 38 44
-2.513396 11.187849 61.723995 67 37 42
-2.518632 11.344491 61.852589 66 34 37
-2.513396 11.453961 61.723995 64 32 34
-2.487538 11.467810 61.088974 62 31 32
-2.492667 11.623413 61.214931 61 31 31
-2.492667 11.755372 61.214931 58 31 30
-2.502988 11.936554 61.468410 56 30 29
-2.502988 12.069059 61.468410 53 30 28
-2.487538 12.126245 61.088974 51 30 28
-2.482430 12.232762 60.963535 50 29 28
-2.482430 12.364180 60.963535 49 28 28
-2.477343 12.469991 60.838612 49 28 28
-2.467231 12.549706 60.590290 50 27 27
-2.472277 12.706248 60.714195 51 27 28
-2.472277 12.837128 60.714195 53 28 28
-2.462206 12.915184 60.466888 56 29 30
-2.472277 13.098886 60.714195 60 31 32
-2.472277 13.229766 60.714195 63 33 36
-2.472277 13.360645 60.714195 67 36 41
-2.497817 13.630899 61.341408 70 40 46
-2.487538 13.706492 61.088974 73 43 49
-2.492667 13.866713 61.214931 75 47 52
-2.497817 14.027594 61.341408 78 49 55
-2.502988 14.189142 61.468410 79 50 56
-2.502988 14.321647 61.468410 78 49 56
-2.513396 14.514253 61.723995 76 48 53
-2.523890 14.708467 61.981716 75 48 52
-2.508181 14.749701 61.595940 74 48 51
-2.599878 16.390011 63.847832 52 34 34
-2.577704 16.386686 63.303288 50 33 33
-2.616760 16.773497 64.262428 47 32 31
-2.588744 16.730953 63.574394 46 31 30
-2.728992 18.504189 67.018608 37 24 22
-2.686541 18.358568 65.976097 35 22 20
-2.415492 -12.815705 62.635532 152 76 69
-2.400301 -12.466760 62.241596 160 81 72
-2.385299 -12.255509 61.852589 161 83 73
-2.415492 -11.600516 62.635532 176 107 94
-2.415492 -11.465495 62.635532 176 107 99
-2.415492 -11.330474 62.635532 176 107 103
-2.425727 -11.242891 62.900936 173 104 104
-2.420599 -11.083815 62.767956 168 99 102
-2.425727 -10.971704 62.900936 166 98 102
-2.415492 -10.790389 62.635532 171 103 109
-2.415492 -10.655368 62.635532 179 111 117
-2.415492 -10.520347 62.635532 183 115 121
-2.410407 -10.363462 62.503666 184 116 122
-2.410407 -10.228725 62.503666 187 116 123
-2.375401 -9.947395 61.595940 189 116 123
-2.375401 -9.814615 61.595940 191 113 121
-2.380340 -9.701963 61.723995 191 108 116
-2.375401 -9.549055 61.595940 185 96 104
-2.370483 -9.396780 61.468410 174 81 87
-2.370483 -9.264275 61.468410 167 70 75
-2.365586 -9.112902 61.341408 167 68 71
-2.351013 -8.925348 60.963535 171 71 71
-2.346195 -8.775911 60.838612 176 75 74
-2.336619 -8.609479 60.590290 180 79 76
-2.336619 -8.478867 60.590290 185 84 79
-2.341398 -8.365326 60.714195 190 90 83
-2.303709 -8.101900 59.736904 195 97 87
-2.267215 -7.846821 58.790577 199 101 90
-2.262734 -7.704831 58.674393 203 105 92
-2.262734 -7.578349 58.674393 206 108 93
-2.258271 -7.437169 58.558662 211 111 93
-2.262734 -7.325385 58.674393 215 113 94
-2.267215 -7.213158 58.790577 219 114 94
-2.267215 -7.086425 58.790577 222 114 94
-2.267215 -6.959692 58.790577 224 114 93
-2.262734 -6.819456 58.674393 223 111 89
-2.267215 -6.706227 58.790577 223 109 85
-2.262734 -6.566491 58.674393 226 109 84
-2.258271 -6.427307 58.558662 223 105 79
-2.258271 -6.301074 58.558662 211 92 65
-2.262734 -6.187045 58.674393 204 82 55
-2.262734 -6.060562 58.674393 207 82 56
-2.262734 -5.934080 58.674393 211 84 59
-2.258271 -5.796143 58.558662 213 84 60
-2.253825 -5.658749 58.443390 213 83 59
-2.258271 -5.543678 58.558662 213 83 59
-2.267215 -5.438900 58.790577 214 84 60
-2.262734 -5.301669 58.674393 215 86 60
-2.280764 -5.216424 59.141918 216 88 60
-2.322400 -5.181835 60.221588 217 89 61
-2.289887 -4.981289 59.378483 219 91 62
-2.276229 -4.824343 59.024338 220 93 63
-2.271713 -4.687787 58.907227 222 94 64
-2.276229 -4.569870 59.024338 223 95 65
-2.271713 -4.433818 58.907227 223 96 65
-2.253825 -4.272923 58.443390 223 96 66
-2.249398 -4.138791 58.328571 223 96 66
-2.258271 -4.028885 58.558662 223 96 67
-2.253825 -3.894969 58.443390 223 94 68
-2.249398 -3.761581 58.328571 223 91 69
-2.210315 -3.572673 57.315140 223 87 70
-2.189184 -3.416146 56.767193 223 83 69
-2.172568 -3.268775 56.336323 223 79 69
-2.160270 -3.129518 56.017437 221 75 67
-2.172568 -3.025891 56.336323 218 72 65
-2.176698 -2.909971 56.443428 215 70 62
-2.168453 -2.777736 56.229626 210 68 60
-2.172568 -2.661565 56.336323 206 67 60
-2.172568 -2.540123 56.336323 203 68 63
-2.168453 -2.414099 56.229626 196 65 64
-2.172568 -2.297238 56.336323 192 66 70
-2.172568 -2.175796 56.336323 209 95 103
-2.172568 -2.054354 56.336323 232 138 146
-2.172568 -1.932912 56.336323 226 137 144
-2.176698 -1.814914 56.443428 198 98 103
-2.180845 -1.696466 56.550938 194 89 90
-2.180845 -1.574561 56.550938 220 120 119
-2.185006 -1.455428 56.658859 241 146 143
-2.180845 -1.330752 56.550938 246 154 149
-2.185006 -1.211154 56.658859 249 158 154
-2.185006 -1.089016 56.658859 253 163 163
-2.189184 -0.968728 56.767193 254 164 169
-2.189184 -0.846357 56.767193 252 157 170
-2.189184 -0.723986 56.767193 243 137 158
-2.189184 -0.601615 56.767193 237 137 163
-2.189184 -0.479244 56.767193 245 171 195
-2.185006 -0.356192 56.658859 249 171 192
-2.185006 -0.234054 56.658859 246 140 155
-2.185006 -0.111917 56.658859 249 132 137
-2.185006 0.010220 56.658859 254 136 131
-2.185006 0.132358 56.658859 254 134 122
-2.189184 0.254982 56.767193 254 132 115
-2.189184 0.377353 56.767193 254 129 112
-2.193378 0.500681 56.875942 253 129 113
-2.189184 0.622095 56.767193 253 132 116
-2.193378 0.745892 56.875942 253 132 117
-2.193378 0.868497 56.875942 252 131 116
-2.193378 0.991102 56.875942 253 129 114
-2.193378 1.113708 56.875942 253 128 114
-2.193378 1.236313 56.875942 253 136 124
-2.193378 1.358919 56.875942 253 143 129
-2.197588 1.484367 56.985111 249 132 118
-2.197588 1.607208 56.985111 245 122 108
-2.201814 1.733376 57.094696 244 122 107
-2.201814 1.856453 57.094696 242 124 108
-2.201814 1.979530 57.094696 245 136 118
-2.201814 2.102607 57.094696 250 155 136
-2.206057 2.229972 57.204704 251 169 150
-2.206057 2.353286 57.204704 250 175 157
-2.206057 2.476600 57.204704 241 158 139
-2.206057 2.599914 57.204704 227 127 109
-2.210315 2.728485 57.315140 230 137 119
-2.210315 2.852038 57.315140 247 180 161
-2.210315 2.975590 57.315140 254 192 175
-2.210315 3.099142 57.315140 251 166 149
-2.210315 3.222694 57.315140 243 132 115
-2.214591 3.352719 57.425999 236 115 99
-2.210315 3.469798 57.315140 240 132 117
-2.210315 3.593350 57.315140 250 167 152
-2.210315 3.716902 57.315140 253 172 155
-2.210315 3.840455 57.315140 244 136 115
-2.210315 3.964007 57.315140 228 96 70
-2.210315 4.087559 57.315140 224 96 66
-2.210315 4.211111 57.315140 238 146 112
-2.210315 4.334663 57.315140 244 170 134
-2.201814 4.441068 57.094696 228 132 96
-2.206057 4.572939 57.204704 221 105 70
-2.210315 4.705319 57.315140 234 117 84
-2.210315 4.828872 57.315140 245 131 102
-2.214591 4.962003 57.425999 247 135 108
-2.218883 5.095650 57.537292 249 139 114
-2.236217 5.260460 57.986801 251 144 120
-2.236217 5.385460 57.986801 252 144 121
-2.244987 5.532070 58.214199 252 142 120
-2.240594 5.646488 58.100277 253 145 123
-2.240594 5.771733 58.100277 254 153 131
-2.244987 5.908540 58.214199 253 159 136
-2.240594 6.022222 58.100277 248 152 127
-2.240594 6.147467 58.100277 234 134 104
-2.236217 6.260460 57.986801 228 132 97
-2.231858 6.373013 57.873768 238 164 124
-2.231858 6.497769 57.873768 250 195 151
-2.227516 6.609641 57.761173 247 186 138
-2.231858 6.747282 57.873768 233 153 105
-2.227516 6.858668 57.761173 225 137 89
-2.227516 6.983182 57.761173 229 141 97
-2.227516 7.107696 57.761173 235 148 108
-2.223191 7.218166 57.649014 237 149 114
-2.231858 7.371063 57.873768 236 149 117
-2.227516 7.481236 57.761173 234 148 118
-2.236217 7.635460 57.986801 230 145 117
-2.249398 7.806200 58.328571 223 140 114
-2.253825 7.947550 58.443390 217 136 111
-2.258271 8.089458 58.558662 212 132 108
-2.267215 8.248229 58.790577 203 125 104
-2.271713 8.391579 58.907227 192 116 95
-2.276229 8.535498 59.024338 185 110 91
-2.280764 8.679991 59.141918 186 113 94
-2.280764 8.807481 59.141918 189 118 100
-2.285316 8.952806 59.259964 187 118 100
-2.285316 9.080550 59.259964 179 113 96
-2.299083 9.263766 59.616951 169 109 91
-2.313017 9.449203 59.978268 157 102 87
-2.313017 9.578496 59.978268 138 91 78
-2.322400 9.747171 60.221588 114 74 65
-2.341398 10.219541 60.714195 69 41 43
-2.336619 10.329297 60.590290 70 43 47
-2.336619 10.459909 60.590290 72 45 50
-2.341398 10.612179 60.714195 71 44 50
-2.346195 10.765073 60.838612 68 40 46
-2.346195 10.896220 60.838612 67 37 44
-2.360708 11.095578 61.214931 66 35 41
-2.380340 11.320906 61.723995 66 34 37
-2.385299 11.477824 61.852589 65 33 35
-2.355850 11.467810 61.088974 64 32 33
-2.360708 11.623413 61.214931 63 32 32
-2.351013 11.707095 60.963535 61 32 32
-2.365586 11.911892 61.341408 58 32 31
-2.360708 12.019290 61.214931 54 31 30
-2.351013 12.101346 60.963535 52 30 28
-2.346195 12.207696 60.838612 50 29 28
-2.346195 12.338843 60.838612 50 28 27
-2.341398 12.444489 60.714195 50 28 27
-2.336619 12.549706 60.590290 51 27 27
-2.341398 12.706248 60.714195 53 28 28
-2.341398 12.837128 60.714195 55 28 29
-2.336619 12.941542 60.590290 59 30 31
-2.341398 13.098886 60.714195 63 32 35
-2.341398 13.229766 60.714195 67 35 40
-2.341398 13.360645 60.714195 71 39 45
-2.370483 13.659122 61.468410 75 44 50
-2.360708 13.734754 61.214931 78 48 55
-2.360708 13.866713 61.214931 80 50 58
-2.370483 14.056637 61.468410 82 51 59
-2.375401 14.218580 61.595940 82 52 59
-2.375401 14.351360 61.595940 81 51 59
-2.380340 14.514253 61.723995 79 51 57
-2.390278 14.708467 61.981716 77 49 55
-2.380340 14.780365 61.723995 75 49 53
-2.405343 15.204528 62.372356 71 46 50
-2.365586 15.085445 61.341408 68 45 47
-2.472880 16.322582 64.123634 56 37 38
-2.467550 16.425335 63.985435 53 35 35
-2.456960 16.492180 63.710819 50 33 33
-2.472880 16.737268 64.123634 47 32 31
-2.451699 16.730953 63.574394 45 30 29
-2.436050 16.760330 63.168602 43 29 27
-2.572906 18.421024 66.717400 34 22 19
-2.521902 18.196817 65.394806 33 21 18
-2.472880 17.981329 64.123634 32 20 17
-2.270890 -12.761858 62.372356 163 85 77
-2.228749 -12.393082 61.214931 164 85 76
-2.256667 -12.414707 61.981716 167 88 78
-2.242621 -12.204657 61.595940 172 93 83
-2.256667 -12.147484 61.981716 177 98 86
-2.256667 -12.013872 61.981716 189 112 97
-2.266129 -11.930073 62.241596 201 125 108
-2.270890 -11.820682 62.372356 197 123 106
-2.266129 -11.661729 62.241596 188 115 98
-2.275670 -11.576094 62.503666 188 116 102
-2.275670 -11.441357 62.503666 193 122 112
-2.275670 -11.306620 62.503666 193 122 116
-2.285293 -11.219122 62.767956 183 113 110
-2.280471 -11.060431 62.635532 168 99 99
-2.285293 -10.948508 62.767956 163 95 96
-2.280471 -10.790389 62.635532 173 105 109
-2.280471 -10.655368 62.635532 185 118 122
-2.275670 -10.498199 62.503666 188 121 125
-2.270890 -10.341690 62.372356 187 120 124
-2.266129 -10.185838 62.241596 189 119 125
-2.233354 -9.906290 61.341408 192 119 125
-2.233354 -9.774059 61.341408 193 115 122
-2.237978 -9.661790 61.468410 191 108 114
-2.233354 -9.509596 61.341408 186 97 103
-2.233354 -9.377365 61.341408 176 82 87
-2.228749 -9.226071 61.214931 167 69 73
-2.224163 -9.075400 61.088974 165 65 67
-2.210518 -8.888844 60.714195 168 67 68
-2.201514 -8.722290 60.466888 173 71 71
-2.192583 -8.557088 60.221588 179 78 75
-2.201514 -8.461597 60.466888 186 84 80
-2.197039 -8.314318 60.343987 191 90 85
-2.157572 -8.037214 59.259964 195 95 88
-2.136252 -7.831313 58.674393 199 99 90
-2.132038 -7.689634 58.558662 202 103 92
-2.132038 -7.563401 58.558662 206 108 94
-2.127841 -7.422529 58.443390 211 111 96
-2.132038 -7.310936 58.558662 216 115 97
-2.132038 -7.184703 58.558662 220 117 98
-2.136252 -7.072420 58.674393 223 119 99
-2.136252 -6.945938 58.674393 225 118 98
-2.132038 -6.806005 58.558662 225 117 94
-2.132038 -6.679772 58.558662 229 118 95
-2.127841 -6.540639 58.443390 234 122 97
-2.123661 -6.402052 58.328571 229 115 89
-2.123661 -6.276315 58.328571 217 101 75
-2.127841 -6.162686 58.443390 211 93 66
-2.127841 -6.036702 58.443390 212 90 64
-2.127841 -5.910717 58.443390 211 86 61
-2.127841 -5.784733 58.443390 210 83 59
-2.115349 -5.625527 58.100277 210 83 59
-2.119497 -5.511068 58.214199 213 84 60
-2.127841 -5.406781 58.443390 214 85 61
-2.123661 -5.270422 58.328571 215 87 63
-2.161887 -4.981289 59.378483 220 93 67
-2.140482 -4.805237 58.790577 221 94 68
-2.140482 -4.678504 58.790577 222 96 70
-2.148993 -4.569870 59.024338 224 97 70
-2.144729 -4.433818 58.907227 224 99 71
-2.127841 -4.272923 58.443390 224 99 70
-2.115349 -4.122592 58.100277 223 98 70
-2.132038 -4.028885 58.558662 222 97 70
-2.123661 -3.887317 58.328571 223 95 70
-2.107102 -3.732250 57.873768 223 91 70
-2.074747 -3.552101 56.985111 223 88 70
-2.051126 -3.390217 56.336323 223 84 69
-2.039516 -3.250273 56.017437 222 81 68
-2.039516 -3.129518 56.017437 221 77 67
-2.047241 -3.020160 56.229626 219 75 65
-2.051126 -2.904449 56.336323 216 73 63
-2.043371 -2.772485 56.123333 212 71 62
-2.047241 -2.656524 56.229626 208 71 62
-2.047241 -2.535312 56.229626 203 70 65
-2.047241 -2.414099 56.229626 194 65 65
-2.051126 -2.297238 56.336323 192 71 76
-2.051126 -2.175796 56.336323 214 112 122
-2.051126 -2.054354 56.336323 233 153 164
-2.051126 -1.932912 56.336323 214 131 140
-2.058940 -1.818371 56.550938 187 89 94
-2.058940 -1.696466 56.550938 196 92 95
-2.058940 -1.574561 56.550938 222 124 123
-2.062869 -1.455428 56.658859 239 153 149
-2.062869 -1.333291 56.658859 247 171 167
-2.062869 -1.211154 56.658859 251 174 172
-2.062869 -1.089016 56.658859 254 170 172
-2.066813 -0.968728 56.767193 254 166 175
-2.066813 -0.846357 56.767193 251 157 175
-2.066813 -0.723986 56.767193 242 137 163
-2.070773 -0.602767 56.875942 238 141 171
-2.066813 -0.479244 56.767193 246 174 200
-2.062869 -0.356192 56.658859 245 161 184
-2.062869 -0.234054 56.658859 237 125 142
-2.062869 -0.111917 56.658859 243 125 132
-2.062869 0.010220 56.658859 252 132 129
-2.062869 0.132358 56.658859 254 131 120
-2.066813 0.254982 56.767193 254 133 118
-2.062869 0.376633 56.658859 253 132 117
-2.066813 0.499724 56.767193 251 133 118
-2.066813 0.622095 56.767193 252 145 133
-2.070773 0.745892 56.875942 254 154 143
-2.070773 0.868497 56.875942 252 143 132
-2.070773 0.991102 56.875942 251 130 120
-2.070773 1.113708 56.875942 250 126 116
-2.066813 1.233949 56.767193 250 127 118
-2.070773 1.358919 56.875942 248 130 120
-2.074747 1.484367 56.985111 245 125 113
-2.074747 1.607208 56.985111 245 125 111
-2.078737 1.733376 57.094696 245 128 111
-2.078737 1.856453 57.094696 242 130 112
-2.074747 1.975730 56.985111 246 148 129
-2.078737 2.102607 57.094696 253 172 153
-2.078737 2.225684 57.094696 254 183 164
-2.082742 2.353286 57.204704 253 187 168
-2.082742 2.476600 57.204704 245 165 146
-2.082742 2.599914 57.204704 230 127 107
-2.086763 2.728485 57.315140 229 127 107
-2.086763 2.852038 57.315140 245 170 150
-2.086763 2.975590 57.315140 254 194 173
-2.090800 3.105136 57.425999 254 172 152
-2.090800 3.228927 57.425999 250 138 119
-2.090800 3.352719 57.425999 245 119 103
-2.090800 3.476510 57.425999 245 124 109
-2.090800 3.600301 57.425999 251 143 128
-2.090800 3.724092 57.425999 251 144 128
-2.086763 3.840455 57.315140 240 115 95
-2.090800 3.971674 57.425999 230 92 65
-2.086763 4.087559 57.315140 234 104 72
-2.086763 4.211111 57.315140 246 143 106
-2.086763 4.334663 57.315140 245 154 114
-2.078737 4.441068 57.094696 229 122 83
-2.078737 4.564145 57.094696 222 103 67
-2.090800 4.714421 57.425999 235 117 85
-2.090800 4.838212 57.425999 248 132 105
-2.090800 4.962003 57.425999 251 137 114
-2.098919 5.105545 57.649014 252 140 120
-2.115349 5.270754 58.100277 253 143 125
-2.115349 5.395999 58.100277 253 141 123
-2.119497 5.532070 58.214199 252 139 121
-2.119497 5.657560 58.214199 253 144 124
-2.115349 5.771733 58.100277 253 150 129
-2.119497 5.908540 58.214199 250 148 125
-2.115349 6.022222 58.100277 241 137 111
-2.111217 6.135460 57.986801 231 126 96
-2.111217 6.260460 57.986801 232 137 104
-2.111217 6.385460 57.986801 243 176 139
-2.107102 6.497769 57.873768 249 196 154
-2.103003 6.609641 57.761173 239 169 126
-2.107102 6.747282 57.873768 226 138 94
-2.103003 6.858668 57.761173 226 135 92
-2.103003 6.983182 57.761173 234 145 104
-2.107102 7.121551 57.873768 237 149 113
-2.098919 7.218166 57.649014 237 150 116
-2.107102 7.371063 57.873768 236 149 118
-2.107102 7.495820 57.873768 234 148 119
-2.119497 7.665403 58.214199 229 144 117
-2.127841 7.821566 58.443390 223 140 114
-2.127841 7.947550 58.443390 218 137 112
-2.132038 8.089458 58.558662 214 134 112
-2.136252 8.231928 58.674393 206 127 108
-2.140482 8.374961 58.790577 195 118 99
-2.144729 8.518562 58.907227 187 111 93
-2.148993 8.662735 59.024338 187 113 96
-2.153274 8.807481 59.141918 190 118 101
-2.153274 8.934971 59.141918 188 117 101
-2.157572 9.080550 59.259964 182 114 97
-2.161887 9.226711 59.378483 174 110 93
-2.174936 9.411178 59.736904 163 104 89
-2.179321 9.559184 59.857342 148 96 83
-2.183724 9.707788 59.978268 127 82 73
-2.201514 10.047567 60.466888 82 47 46
-2.206007 10.198685 60.590290 71 41 42
-2.201514 10.308260 60.466888 68 41 43
-2.201514 10.438606 60.466888 68 41 45
-2.201514 10.568952 60.466888 67 40 45
-2.210518 10.743058 60.714195 67 38 44
-2.206007 10.851746 60.590290 66 37 43
-2.215048 11.027368 60.838612 65 35 40
-2.237978 11.274028 61.468410 65 35 38
-2.247283 11.453961 61.723995 65 34 36
-2.219596 11.444262 60.963535 64 34 34
-2.224163 11.599497 61.088974 63 33 33
-2.210518 11.659214 60.714195 62 33 33
-2.228749 11.887331 61.214931 59 33 31
-2.224163 11.994558 61.088974 56 31 29
-2.215048 12.076548 60.838612 53 30 28
-2.210518 12.182731 60.714195 51 29 27
-2.210518 12.313610 60.714195 51 29 27
-2.210518 12.444489 60.714195 51 28 27
-2.206007 12.549706 60.590290 52 28 28
-2.206007 12.680317 60.590290 54 29 28
-2.206007 12.810929 60.590290 57 30 30
-2.206007 12.941542 60.590290 60 31 32
-2.210518 13.098886 60.714195 64 34 36
-2.210518 13.229766 60.714195 69 37 42
-2.215048 13.388023 60.838612 74 42 48
-2.242621 13.687460 61.595940 80 48 56
-2.233354 13.763131 61.341408 84 53 61
-2.242621 13.953020 61.595940 86 55 64
-2.251965 14.144490 61.852589 85 54 63
-2.251965 14.277823 61.852589 83 52 61
-2.251965 14.411158 61.852589 81 51 59
-2.261388 14.605346 62.111385 79 50 57
-2.266129 14.770137 62.241596 77 49 55
-2.261388 14.873129 62.111385 75 49 54
-2.261388 15.007020 62.111385 74 48 53
-2.270890 15.204528 62.372356 72 47 52
-2.237978 15.116678 61.468410 69 46 49
-2.294997 15.637697 63.034485 66 44 47
-2.270890 15.607889 62.372356 63 42 44
-2.309708 16.284948 63.438553 53 35 36
-2.309708 16.421700 63.438553 49 33 33
-2.314654 16.593908 63.574394 46 31 30
-2.304783 16.659607 63.303288 43 29 28
-2.423640 18.379721 66.567810 32 21 17
-2.375700 18.156826 65.251083 31 20 16
-2.309708 17.789221 63.438553 30 19 16
-2.242621 17.405302 61.595940 30 19 16
-2.206007 17.251745 60.590290 29 19 16
-2.188144 17.241610 60.099682 29 19 16
-2.118632 -12.655509 61.852589 170 92 83
-2.092476 -12.367581 61.088974 167 89 79
-2.109841 -12.337437 61.595940 178 100 91
-2.105473 -12.179388 61.468410 192 113 104
-2.109841 -12.071877 61.595940 194 116 104
-2.114227 -11.963918 61.723995 199 121 107
-2.123055 -11.880260 61.981716 207 131 115
-2.127496 -11.771223 62.111385 205 128 113
-2.123055 -11.613036 61.981716 196 121 107
-2.131957 -11.527556 62.241596 197 123 111
-2.131957 -11.393385 62.241596 205 132 122
-2.131957 -11.259212 62.241596 206 135 127
-2.140933 -11.171884 62.503666 191 122 117
-2.136436 -11.013959 62.372356 169 101 99
-2.140933 -10.902410 62.503666 162 95 95
-2.136436 -10.745051 62.372356 175 108 109
-2.140933 -10.632936 62.503666 188 122 124
-2.136436 -10.476144 62.372356 191 124 127
-2.131957 -10.320009 62.241596 189 122 126
-2.127496 -10.164528 62.111385 193 123 128
-2.096790 -9.885865 61.214931 198 124 129
-2.096790 -9.753906 61.214931 198 119 125
-2.096790 -9.621947 61.214931 193 109 115
-2.092476 -9.470462 61.088974 185 95 101
-2.092476 -9.338775 61.088974 172 77 82
-2.092476 -9.207088 61.088974 162 63 67
-2.083900 -9.038206 60.838612 162 61 64
-2.075395 -8.870703 60.590290 168 67 68
-2.062765 -8.686906 60.221588 175 73 72
-2.058590 -8.539766 60.099682 182 80 77
-2.062765 -8.427271 60.221588 189 87 83
-2.054431 -8.263928 59.978268 195 92 88
-2.025784 -8.021204 59.141918 199 97 90
-2.009769 -7.831313 58.674393 201 100 92
-2.005805 -7.689634 58.558662 204 104 94
-2.005805 -7.563401 58.558662 209 109 97
-2.001857 -7.422529 58.443390 212 113 99
-2.001857 -7.296545 58.443390 215 115 99
-2.001857 -7.170560 58.443390 221 120 103
-2.005805 -7.058470 58.558662 227 125 107
-2.005805 -6.932238 58.558662 229 125 106
-1.997924 -6.779263 58.328571 229 124 103
-2.001857 -6.666623 58.443390 234 128 104
-1.994007 -6.514989 58.214199 237 130 105
-1.990104 -6.376995 58.100277 230 121 96
-1.990104 -6.251750 58.100277 222 110 85
-1.994007 -6.138519 58.214199 224 109 84
-1.994007 -6.013029 58.214199 224 106 81
-1.994007 -5.887538 58.214199 217 95 72
-1.994007 -5.762048 58.214199 210 86 64
-1.982346 -5.603596 57.873768 210 85 63
-1.986217 -5.489540 57.986801 214 88 66
-1.994007 -5.385578 58.214199 215 89 67
-1.990104 -5.249794 58.100277 217 90 68
-2.001857 -5.154812 58.443390 219 92 69
-2.021756 -4.951580 59.024338 222 96 73
-2.001857 -4.776859 58.443390 222 96 74
-2.001857 -4.650875 58.443390 223 98 74
-2.009769 -4.542776 58.674393 225 100 76
-2.005805 -4.407583 58.558662 225 101 76
-1.990104 -4.247837 58.100277 224 100 74
-1.967008 -4.074748 57.425999 223 99 73
-1.990104 -3.997347 58.100277 222 98 73
-1.978489 -3.849503 57.761173 222 95 73
-1.963211 -3.696225 57.315140 222 91 72
-1.944442 -3.538517 56.767193 223 88 71
-1.911548 -3.358354 55.806847 223 85 70
-1.918761 -3.250273 56.017437 222 82 69
-1.918761 -3.129518 56.017437 221 79 66
-1.922388 -3.014451 56.123333 219 77 64
-1.929684 -2.904449 56.336323 217 76 62
-1.922388 -2.772485 56.123333 213 75 61
-1.926029 -2.656524 56.229626 209 74 61
-1.926029 -2.535312 56.229626 202 72 62
-1.926029 -2.414099 56.229626 194 69 63
-1.929684 -2.297238 56.336323 197 82 82
-1.929684 -2.175796 56.336323 221 130 135
-1.933352 -2.058259 56.443428 231 157 163
-1.929684 -1.932912 56.336323 205 122 126
-1.937035 -1.818371 56.550938 187 91 93
-1.940732 -1.699703 56.658859 203 103 103
-1.940732 -1.577566 56.658859 225 133 130
-1.944442 -1.458211 56.767193 241 171 166
-1.944442 -1.335840 56.767193 251 198 193
-1.944442 -1.213470 56.767193 254 194 192
-1.944442 -1.091099 56.767193 254 179 182
-1.944442 -0.968728 56.767193 254 170 180
-1.944442 -0.846357 56.767193 253 160 179
-1.948167 -0.725373 56.875942 248 151 177
-1.948167 -0.602767 56.875942 247 162 192
-1.944442 -0.479244 56.767193 251 179 206
-1.940732 -0.356192 56.658859 245 153 175
-1.937035 -0.233609 56.550938 236 121 136
-1.937035 -0.111704 56.550938 243 125 130
-1.937035 0.010201 56.550938 252 133 128
-1.937035 0.132106 56.550938 253 134 123
-1.944442 0.254982 56.767193 254 138 124
-1.940732 0.376633 56.658859 250 136 121
-1.944442 0.499724 56.767193 248 140 126
-1.944442 0.622095 56.767193 251 168 157
-1.948167 0.745892 56.875942 253 178 169
-1.948167 0.868497 56.875942 251 152 144
-1.948167 0.991102 56.875942 250 137 129
-1.948167 1.113708 56.875942 248 131 123
-1.944442 1.233949 56.767193 244 122 113
-1.948167 1.358919 56.875942 242 119 109
-1.951907 1.484367 56.985111 241 122 109
-1.951907 1.607208 56.985111 246 132 117
-1.955660 1.733376 57.094696 247 139 120
-1.951907 1.852890 56.985111 244 143 124
-1.951907 1.975730 56.985111 249 167 147
-1.951907 2.098571 56.985111 254 186 167
-1.951907 2.221412 56.985111 254 182 163
-1.955660 2.348761 57.094696 254 176 157
-1.955660 2.471838 57.094696 248 158 139
-1.959428 2.599914 57.204704 235 125 105
-1.959428 2.723228 57.204704 231 121 99
-1.963211 2.852038 57.315140 245 159 135
-1.963211 2.975590 57.315140 254 184 160
-1.963211 3.099142 57.315140 254 168 145
-1.967008 3.228927 57.425999 252 139 117
-1.967008 3.352719 57.425999 250 124 105
-1.967008 3.476510 57.425999 252 124 107
-1.970820 3.607278 57.537292 253 127 112
-1.967008 3.724092 57.425999 250 122 107
-1.963211 3.840455 57.315140 242 106 88
-1.967008 3.971674 57.425999 239 100 77
-1.967008 4.095465 57.425999 245 112 84
-1.963211 4.211111 57.315140 249 128 95
-1.963211 4.334663 57.315140 245 128 92
-1.955660 4.441068 57.094696 233 113 77
-1.959428 4.572939 57.204704 229 107 74
-1.967008 4.714421 57.425999 239 119 91
-1.967008 4.838212 57.425999 250 132 110
-1.970820 4.971619 57.537292 253 138 121
-1.978489 5.115478 57.761173 254 141 128
-1.990104 5.270754 58.100277 254 143 131
-1.990104 5.395999 58.100277 253 140 128
-1.990104 5.521244 58.100277 251 138 125
-1.994007 5.657560 58.214199 251 146 130
-1.990104 5.771733 58.100277 250 152 133
-1.990104 5.896977 58.100277 244 142 120
-1.990104 6.022222 58.100277 235 129 104
-1.986217 6.135460 57.986801 231 125 98
-1.986217 6.260460 57.986801 237 145 115
-1.986217 6.385460 57.986801 249 181 148
-1.982346 6.497769 57.873768 248 185 149
-1.982346 6.622525 57.873768 234 153 114
-1.986217 6.760460 57.986801 225 133 93
-1.978489 6.858668 57.761173 231 139 100
-1.982346 6.996794 57.873768 238 149 112
-1.986217 7.135460 57.986801 239 151 116
-1.978489 7.232209 57.761173 238 151 118
-1.986217 7.385460 57.986801 237 150 120
-1.994007 7.539913 58.214199 234 149 119
-2.001857 7.695581 58.443390 229 146 117
-2.005805 7.836993 58.558662 223 142 115
-2.009769 7.978963 58.674393 219 139 115
-2.005805 8.089458 58.558662 215 136 115
-2.013749 8.248229 58.790577 209 130 112
-2.013749 8.374961 58.790577 199 121 106
-2.017745 8.518562 58.907227 193 116 101
-2.021756 8.662735 59.024338 191 115 101
-2.025784 8.807481 59.141918 191 116 102
-2.025784 8.934971 59.141918 188 115 101
-2.029827 9.080550 59.259964 184 113 99
-2.029827 9.208294 59.259964 178 110 96
-2.037963 9.373458 59.497478 169 106 92
-2.042055 9.520794 59.616951 156 100 88
-2.050289 9.688216 59.857342 140 90 81
-2.062765 9.876988 60.221588 117 73 68
-2.066958 10.027145 60.343987 92 54 52
-2.075395 10.198685 60.590290 75 42 42
-2.071168 10.308260 60.466888 69 40 41
-2.066958 10.417389 60.343987 67 40 42
-2.066958 10.547470 60.343987 67 39 43
-2.071168 10.699298 60.466888 66 38 43
-2.071168 10.829644 60.466888 65 37 42
-2.075395 10.982358 60.590290 65 36 40
-2.092476 11.204435 61.088974 65 36 39
-2.101123 11.382966 61.341408 65 35 37
-2.079639 11.397455 60.714195 64 35 36
-2.088179 11.575679 60.963535 63 34 35
-2.071168 11.611722 60.466888 62 34 33
-2.096790 11.887331 61.214931 59 33 31
-2.088179 11.969929 60.963535 56 31 29
-2.083900 12.076548 60.838612 54 30 28
-2.079639 12.182731 60.714195 52 29 28
-2.079639 12.313610 60.714195 51 29 28
-2.079639 12.444489 60.714195 52 29 28
-2.075395 12.549706 60.590290 53 29 28
-2.079639 12.706248 60.714195 55 30 29
-2.079639 12.837128 60.714195 57 31 31
-2.079639 12.968007 60.714195 61 33 33
-2.083900 13.125729 60.838612 66 36 38
-2.088179 13.284098 60.963535 71 39 44
-2.092476 13.443118 61.088974 78 45 51
-2.114227 13.715916 61.723995 85 52 60
-2.105473 13.791626 61.468410 90 59 67
-2.123055 14.040408 61.981716 90 59 68
-2.127496 14.203672 62.111385 86 55 64
-2.123055 14.307631 61.981716 82 51 60
-2.123055 14.441243 61.981716 81 51 59
-2.136436 14.666713 62.372356 80 50 57
-2.140933 14.832327 62.503666 78 50 56
-2.136436 14.935620 62.372356 78 51 56
-2.131957 15.038481 62.241596 77 51 56
-2.136436 15.204528 62.372356 74 49 54
-2.114227 15.179533 61.723995 71 48 52
-2.159115 15.637697 63.034485 68 46 49
-2.131957 15.575169 62.241596 64 44 46
-2.163709 16.351820 63.168602 48 33 32
-2.168323 16.523146 63.303288 44 30 29
-2.163709 16.624161 63.168602 41 27 26
-2.264907 18.256916 66.123032 30 20 16
-2.230139 18.117008 65.107986 29 19 15
-2.163709 17.713522 63.168602 29 18 15
-2.096790 17.297640 61.214931 29 18 15
-2.062765 17.146765 60.221588 29 18 15
-1.972968 -12.576903 61.468410 172 95 85
-1.956763 -12.342186 60.963535 172 96 86
-1.972968 -12.311893 61.468410 192 115 107
-1.968891 -12.154224 61.341408 212 134 125
-1.977061 -12.071877 61.595940 211 133 122
-1.977061 -11.939096 61.595940 210 133 120
-1.985299 -11.855510 61.852589 218 141 128
-1.985299 -11.722177 61.852589 215 138 124
-1.981171 -11.564750 61.723995 204 128 115
-1.993605 -11.503441 62.111385 202 126 115
-1.993605 -11.369549 62.111385 209 135 126
-1.993605 -11.235658 62.111385 210 139 131
-2.001982 -11.148413 62.372356 193 124 118
-1.997785 -10.990869 62.241596 169 101 98
-2.001982 -10.879505 62.372356 163 97 95
-1.997785 -10.722526 62.241596 176 111 110
-2.001982 -10.610598 62.372356 188 122 123
-1.997785 -10.454182 62.241596 190 123 126
-1.989443 -10.276919 61.981716 191 123 127
-1.985299 -10.122176 61.852589 197 126 131
-1.960789 -9.865523 61.088974 202 127 133
-1.960789 -9.733836 61.088974 201 122 127
-1.960789 -9.602149 61.088974 194 110 115
-1.956763 -9.451015 60.963535 183 93 98
-1.956763 -9.319598 60.963535 166 72 76
-1.952753 -9.169353 60.838612 156 58 60
-1.948759 -9.019723 60.714195 159 59 60
-1.936877 -8.834643 60.343987 171 70 70
-1.929035 -8.669321 60.099682 181 79 77
-1.921257 -8.505332 59.857342 188 85 82
-1.925138 -8.393221 59.978268 194 91 87
-1.913541 -8.214146 59.616951 199 96 91
-1.890761 -7.989374 58.907227 202 99 93
-1.883287 -7.831313 58.674393 203 100 93
-1.879573 -7.689634 58.558662 206 104 96
-1.879573 -7.563401 58.558662 210 109 100
-1.872187 -7.407946 58.328571 212 111 100
-1.872187 -7.282209 58.328571 211 111 98
-1.872187 -7.156473 58.328571 216 117 102
-1.875873 -7.044576 58.443390 227 127 110
-1.875873 -6.918591 58.443390 233 132 113
-1.868516 -6.765970 58.214199 233 131 112
-1.868516 -6.640480 58.214199 235 131 111
-1.864860 -6.502240 58.100277 238 131 109
-1.857589 -6.352134 57.873768 233 126 103
-1.861217 -6.239540 57.986801 233 125 101
-1.861217 -6.114540 57.986801 241 133 109
-1.864860 -6.001261 58.100277 239 127 104
-1.864860 -5.876017 58.100277 225 106 86
-1.864860 -5.750772 58.100277 214 92 73
-1.857589 -5.603596 57.873768 213 90 72
-1.857589 -5.478839 57.873768 218 92 74
-1.864860 -5.375038 58.100277 219 93 75
-1.857589 -5.229327 57.873768 219 94 75
-1.868516 -5.134597 58.214199 221 95 75
-1.879573 -5.038747 58.558662 222 96 75
-1.879573 -4.912514 58.558662 223 98 77
-1.864860 -4.748815 58.100277 222 98 78
-1.864860 -4.623570 58.100277 223 99 78
-1.868516 -4.507146 58.214199 225 101 79
-1.868516 -4.381656 58.214199 225 101 80
-1.857589 -4.231276 57.873768 224 100 78
-1.843217 -4.074748 57.425999 223 99 77
-1.861217 -3.989540 57.986801 223 97 76
-1.850375 -3.842028 57.649014 223 95 76
-1.839659 -3.696225 57.315140 223 91 74
-1.822071 -3.538517 56.767193 223 89 73
-1.791247 -3.358354 55.806847 223 86 71
-1.801405 -3.256417 56.123333 223 83 68
-1.801405 -3.135434 56.123333 222 81 66
-1.798006 -3.008763 56.017437 220 79 63
-1.808242 -2.904449 56.336323 219 78 61
-1.801405 -2.772485 56.123333 216 78 60
-1.804817 -2.656524 56.229626 211 77 59
-1.808242 -2.540123 56.336323 203 74 59
-1.808242 -2.418680 56.336323 197 75 63
-1.808242 -2.297238 56.336323 207 99 91
-1.808242 -2.175796 56.336323 228 143 139
-1.811679 -2.058259 56.443428 225 147 146
-1.808242 -1.932912 56.336323 200 111 110
-1.815130 -1.818371 56.550938 199 103 101
-1.818594 -1.699703 56.658859 219 125 121
-1.818594 -1.577566 56.658859 235 153 147
-1.822071 -1.458211 56.767193 246 190 183
-1.822071 -1.335840 56.767193 253 210 204
-1.825562 -1.215794 56.875942 254 199 196
-1.822071 -1.091099 56.767193 254 183 185
-1.825562 -0.970583 56.875942 254 172 181
-1.825562 -0.847978 56.875942 254 165 182
-1.825562 -0.725373 56.875942 253 170 194
-1.825562 -0.602767 56.875942 253 184 210
-1.822071 -0.479244 56.767193 251 176 200
-1.818594 -0.356192 56.658859 245 143 162
-1.815130 -0.233609 56.550938 242 125 135
-1.815130 -0.111704 56.550938 247 129 131
-1.815130 0.010201 56.550938 252 134 127
-1.815130 0.132106 56.550938 254 139 127
-1.822071 0.254982 56.767193 251 142 127
-1.818594 0.376633 56.658859 246 136 120
-1.818594 0.498770 56.658859 246 147 133
-1.818594 0.620907 56.658859 252 181 169
-1.822071 0.744466 56.767193 249 175 166
-1.822071 0.866836 56.767193 243 146 139
-1.822071 0.989207 56.767193 248 153 146
-1.825562 1.113708 56.875942 247 149 142
-1.822071 1.233949 56.767193 240 124 116
-1.825562 1.358919 56.875942 241 119 109
-1.825562 1.481524 56.875942 245 130 118
-1.825562 1.604129 56.875942 249 145 130
-1.829066 1.730049 56.985111 249 149 132
-1.829066 1.852890 56.985111 247 158 139
-1.825562 1.971945 56.875942 252 187 168
-1.825562 2.094551 56.875942 254 196 177
-1.829066 2.221412 56.985111 254 174 155
-1.832583 2.348761 57.094696 254 160 141
-1.832583 2.471838 57.094696 248 148 128
-1.832583 2.594914 57.094696 236 122 101
-1.836114 2.723228 57.204704 232 116 93
-1.839659 2.852038 57.315140 245 144 118
-1.839659 2.975590 57.315140 254 164 138
-1.839659 3.099142 57.315140 254 155 130
-1.843217 3.228927 57.425999 253 136 113
-1.843217 3.352719 57.425999 252 128 106
-1.843217 3.476510 57.425999 254 126 107
-1.846789 3.607278 57.537292 254 122 105
-1.843217 3.724092 57.425999 251 115 98
-1.843217 3.847883 57.425999 247 109 91
-1.843217 3.971674 57.425999 247 111 90
-1.843217 4.095465 57.425999 250 118 94
-1.839659 4.211111 57.315140 249 119 92
-1.843217 4.343047 57.425999 244 116 86
-1.836114 4.449625 57.204704 239 113 84
-1.836114 4.572939 57.204704 237 115 88
-1.846789 4.723557 57.537292 243 124 102
-1.846789 4.847588 57.537292 251 133 119
-1.850375 4.981273 57.649014 253 139 131
-1.857589 5.125449 57.873768 254 142 139
-1.864860 5.270754 58.100277 254 143 142
-1.864860 5.395999 58.100277 252 140 139
-1.864860 5.521244 58.100277 248 136 132
-1.868516 5.657560 58.214199 248 144 136
-1.861217 5.760460 57.986801 247 151 138
-1.864860 5.896977 58.100277 239 139 121
-1.864860 6.022222 58.100277 231 125 104
-1.861217 6.135460 57.986801 230 126 102
-1.857589 6.248256 57.873768 239 150 124
-1.861217 6.385460 57.986801 251 182 154
-1.857589 6.497769 57.873768 248 177 146
-1.857589 6.622525 57.873768 234 145 112
-1.864860 6.773690 58.100277 229 135 100
-1.857589 6.872038 57.873768 237 145 110
-1.857589 6.996794 57.873768 241 151 117
-1.864860 7.149424 58.100277 241 152 119
-1.857589 7.246307 57.873768 240 152 121
-1.864860 7.399913 58.100277 238 152 122
-1.875873 7.569597 58.443390 235 151 121
-1.879573 7.710760 58.558662 230 148 121
-1.883287 7.852481 58.674393 225 144 119
-1.887017 7.994763 58.790577 221 142 119
-1.883287 8.105446 58.674393 216 137 119
-1.887017 8.248229 58.790577 209 131 116
-1.890761 8.391579 58.907227 203 125 112
-1.890761 8.518562 58.907227 198 120 109
-1.894520 8.662735 59.024338 195 117 106
-1.898293 8.807481 59.141918 192 115 104
-1.898293 8.934971 59.141918 188 112 101
-1.902083 9.080550 59.259964 183 110 98
-1.898293 9.189951 59.141918 179 109 96
-1.902083 9.336039 59.259964 174 108 95
-1.905887 9.482711 59.378483 166 104 93
-1.913541 9.649308 59.616951 152 97 87
-1.929035 9.856995 60.099682 130 81 74
-1.936877 10.027145 60.343987 103 60 56
-1.944782 10.198685 60.590290 81 44 43
-1.936877 10.287308 60.343987 71 39 39
-1.936877 10.417389 60.343987 69 40 41
-1.936877 10.547470 60.343987 67 39 43
-1.940822 10.699298 60.466888 66 39 43
-1.940822 10.829644 60.466888 66 38 43
-1.940822 10.959991 60.466888 66 38 42
-1.952753 11.158515 60.838612 66 37 41
-1.952753 11.289663 60.838612 66 36 40
-1.944782 11.374195 60.590290 65 36 38
-1.952753 11.551958 60.838612 64 35 36
-1.936877 11.588120 60.343987 62 33 34
-1.960789 11.862871 61.088974 60 33 32
-1.952753 11.945400 60.838612 57 31 30
-1.948759 12.051851 60.714195 55 30 29
-1.944782 12.157868 60.590290 54 30 28
-1.948759 12.313610 60.714195 53 30 28
-1.948759 12.444489 60.714195 54 30 29
-1.948759 12.575369 60.714195 54 30 29
-1.948759 12.706248 60.714195 55 30 29
-1.952753 12.863433 60.838612 58 32 31
-1.952753 12.994581 60.838612 63 35 35
-1.956763 13.152680 60.963535 69 39 40
-1.960789 13.311431 61.088974 75 43 47
-1.968891 13.498669 61.341408 80 48 53
-1.981171 13.715916 61.723995 86 54 60
-1.977061 13.820240 61.595940 90 58 65
-1.993605 14.069781 62.111385 90 58 66
-1.993605 14.203672 62.111385 86 55 64
-1.993605 14.337564 62.111385 84 53 61
-1.997785 14.501794 62.241596 85 53 61
-2.006196 14.697591 62.503666 84 54 60
-2.010429 14.863619 62.635532 83 55 60
-2.006196 14.967064 62.503666 83 55 59
-2.006196 15.101801 62.503666 81 55 59
-1.997785 15.172653 62.241596 77 53 57
-1.989443 15.242913 61.981716 73 52 54
-2.018948 15.604567 62.900936 69 49 51
-1.997785 15.575169 62.241596 64 45 47
-2.006196 15.775485 62.503666 59 42 42
-2.014679 15.977496 62.767956 53 38 37
-2.023234 16.317102 63.034485 45 31 30
-2.027539 16.487989 63.168602 41 29 27
-2.027539 16.624161 63.168602 38 26 24
-2.117652 18.216345 65.976097 28 19 15
-2.089788 18.117008 65.107986 28 18 14
-2.023234 17.675915 63.034485 28 17 14
-1.956763 17.226603 60.963535 28 18 14
-2.547977 24.142662 79.383003 30 18 17
-1.836660 -12.550919 61.341408 174 98 89
-1.825346 -12.342186 60.963535 182 106 97
-1.844281 -12.337437 61.595940 203 127 118
-1.836660 -12.154224 61.341408 220 144 134
-1.844281 -12.071877 61.595940 217 139 130
-1.844281 -11.939096 61.595940 219 143 132
-1.851965 -11.855510 61.852589 230 155 144
-1.851965 -11.722177 61.852589 226 149 139
-1.848115 -11.564750 61.723995 213 134 124
-1.859714 -11.503441 62.111385 208 130 121
-1.859714 -11.369549 62.111385 211 135 128
-1.859714 -11.235658 62.111385 208 135 129
-1.867528 -11.148413 62.372356 186 115 111
-1.859714 -10.967875 62.111385 165 96 93
-1.867528 -10.879505 62.372356 164 98 95
-1.863613 -10.722526 62.241596 179 114 112
-1.867528 -10.610598 62.372356 190 123 123
-1.859714 -10.432311 62.111385 193 125 127
-1.851965 -10.255509 61.852589 195 126 130
-1.848115 -10.101132 61.723995 201 129 133
-1.829102 -9.865523 61.088974 204 129 134
-1.825346 -9.713849 60.963535 202 121 126
-1.821605 -9.562797 60.838612 194 109 113
-1.821605 -9.431648 60.838612 179 89 93
-1.817880 -9.281482 60.714195 160 67 68
-1.814170 -9.131927 60.590290 151 54 54
-1.810475 -8.982983 60.466888 160 60 59
-1.803131 -8.816723 60.221588 176 75 73
-1.792225 -8.634364 59.857342 188 86 82
-1.785027 -8.471173 59.616951 194 91 86
-1.781450 -8.325941 59.497478 199 94 89
-1.770803 -8.148694 59.141918 203 98 92
-1.760284 -7.973554 58.790577 205 100 93
-1.753340 -7.815867 58.558662 205 100 93
-1.749889 -7.674497 58.443390 207 103 96
-1.746451 -7.533683 58.328571 211 108 100
-1.743026 -7.393421 58.214199 210 109 99
-1.743026 -7.267931 58.214199 208 108 97
-1.743026 -7.142440 58.214199 213 114 101
-1.746451 -7.030736 58.328571 224 127 112
-1.746451 -6.904999 58.328571 234 135 119
-1.739615 -6.752729 58.100277 237 137 119
-1.743026 -6.640480 58.214199 239 136 117
-1.736217 -6.489540 57.986801 242 137 116
-1.732833 -6.352134 57.873768 242 136 114
-1.736217 -6.239540 57.986801 245 140 119
-1.736217 -6.114540 57.986801 247 146 125
-1.736217 -5.989540 57.986801 240 133 114
-1.739615 -5.876017 58.100277 224 109 91
-1.736217 -5.739540 57.986801 216 96 80
-1.732833 -5.603596 57.873768 218 97 81
-1.732833 -5.478839 57.873768 222 100 85
-1.739615 -5.375038 58.100277 223 100 83
-1.729462 -5.219153 57.761173 222 99 82
-1.743026 -5.134597 58.214199 223 98 81
-1.746451 -5.018948 58.328571 224 99 81
-1.746451 -4.893211 58.328571 224 100 81
-1.739615 -4.748815 58.100277 224 100 82
-1.736217 -4.614540 57.986801 224 100 82
-1.736217 -4.489540 57.986801 225 101 82
-1.736217 -4.364540 57.986801 224 100 82
-1.729462 -4.223044 57.761173 224 99 81
-1.716107 -4.066881 57.315140 223 98 81
-1.729462 -3.974017 57.761173 223 96 79
-1.719426 -3.827165 57.425999 223 94 77
-1.712800 -3.689103 57.204704 224 92 76
-1.699700 -3.538517 56.767193 224 89 73
-1.667811 -3.352054 55.702145 224 87 70
-1.680422 -3.256417 56.123333 224 84 68
-1.680422 -3.135434 56.123333 223 82 65
-1.677252 -3.008763 56.017437 222 80 61
-1.686800 -2.904449 56.336323 222 80 60
-1.680422 -2.772485 56.123333 221 82 60
-1.683605 -2.656524 56.229626 214 80 58
-1.686800 -2.540123 56.336323 205 77 55
-1.686800 -2.418680 56.336323 203 83 62
-1.686800 -2.297238 56.336323 216 108 91
-1.686800 -2.175796 56.336323 228 138 124
-1.690006 -2.058259 56.443428 214 128 118
-1.690006 -1.936587 56.443428 198 105 98
-1.693226 -1.818371 56.550938 213 118 111
-1.696457 -1.699703 56.658859 234 145 136
-1.699700 -1.580582 56.767193 245 172 163
-1.702957 -1.461005 56.875942 251 200 191
-1.702957 -1.338400 56.875942 254 205 196
-1.702957 -1.215794 56.875942 254 192 186
-1.699700 -1.091099 56.767193 254 181 180
-1.702957 -0.970583 56.875942 254 171 177
-1.702957 -0.847978 56.875942 254 167 180
-1.702957 -0.725373 56.875942 254 182 199
-1.702957 -0.602767 56.875942 254 188 207
-1.699700 -0.479244 56.767193 248 160 178
-1.696457 -0.356192 56.658859 244 132 145
-1.693226 -0.233609 56.550938 246 131 136
-1.693226 -0.111704 56.550938 251 136 133
-1.696457 0.010220 56.658859 252 137 128
-1.693226 0.132106 56.550938 254 144 130
-1.699700 0.254982 56.767193 249 145 128
-1.696457 0.376633 56.658859 242 134 117
-1.696457 0.498770 56.658859 246 148 133
-1.696457 0.620907 56.658859 251 175 162
-1.699700 0.744466 56.767193 242 151 141
-1.699700 0.866836 56.767193 235 134 127
-1.699700 0.989207 56.767193 245 167 161
-1.699700 1.111578 56.767193 249 170 164
-1.696457 1.231594 56.658859 243 141 134
-1.699700 1.356320 56.767193 246 135 126
-1.702957 1.481524 56.875942 251 145 133
-1.702957 1.604129 56.875942 253 156 142
-1.702957 1.726735 56.875942 252 159 143
-1.702957 1.849340 56.875942 251 173 155
-1.699700 1.968175 56.767193 253 202 184
-1.702957 2.094551 56.875942 254 199 181
-1.702957 2.217156 56.875942 253 167 149
-1.702957 2.339761 56.875942 252 148 130
-1.706225 2.467093 56.985111 245 136 117
-1.709507 2.594914 57.094696 233 117 96
-1.712800 2.723228 57.204704 232 115 91
-1.712800 2.846542 57.204704 245 137 111
-1.712800 2.969857 57.204704 253 151 125
-1.716107 3.099142 57.315140 254 143 118
-1.716107 3.222694 57.315140 253 132 107
-1.716107 3.346246 57.315140 253 129 105
-1.719426 3.476510 57.425999 254 128 106
-1.722758 3.607278 57.537292 254 125 104
-1.722758 3.731309 57.537292 253 120 101
-1.719426 3.847883 57.425999 252 118 99
-1.722758 3.979371 57.537292 252 119 100
-1.722758 4.103402 57.537292 252 120 100
-1.722758 4.227433 57.537292 248 117 95
-1.726104 4.359913 57.649014 244 116 93
-1.719426 4.466838 57.425999 242 118 95
-1.719426 4.590630 57.425999 241 122 101
-1.732833 4.751180 57.873768 245 128 113
-1.729462 4.866450 57.761173 250 136 128
-1.732833 5.000693 57.873768 252 140 140
-1.736217 5.135460 57.986801 252 142 147
-1.743026 5.281089 58.214199 252 148 156
-1.739615 5.395999 58.100277 250 150 157
-1.739615 5.521244 58.100277 242 138 141
-1.743026 5.657560 58.214199 239 131 129
-1.736217 5.760460 57.986801 240 135 127
-1.739615 5.896977 58.100277 236 131 118
-1.743026 6.034030 58.214199 230 124 107
-1.736217 6.135460 57.986801 229 126 106
-1.736217 6.260460 57.986801 238 149 128
-1.739615 6.397956 58.100277 250 180 156
-1.736217 6.510460 57.986801 248 174 147
