ply
format ascii 1.0
element vertex 1264
property float x
property float y
property float z
property uchar red
property uchar green
property uchar blue
end_header
2.695481 19.956640 69.044746 29 24 24
2.670637 19.920174 68.408394 28 24 24
2.857609 -12.697767 69.367386 63 46 47
2.864301 -12.577621 69.529839 62 46 46
2.884567 -12.515671 70.021797 61 45 45
2.891387 -12.393959 70.187332 60 44 44
2.877780 -12.185046 69.857040 60 44 45
2.891387 -12.091358 70.187332 61 44 46
2.884567 -11.911898 70.021797 61 45 47
2.898238 -11.816693 70.353653 62 46 48
2.891387 -11.637458 70.187332 62 47 50
2.947124 -11.707577 71.540344 63 47 50
2.954243 -11.581267 71.713142 63 48 50
2.961396 -11.454345 71.886787 63 49 50
2.912040 -11.111058 70.688675 63 49 49
1.988710 -6.235194 48.275192 62 44 46
1.979056 -6.101367 48.040844 60 42 45
1.985482 -5.913384 48.196823 59 43 46
1.972672 -5.772007 47.885876 59 43 46
1.422159 -3.937959 34.522373 59 42 46
1.420507 -3.859053 34.482281 61 42 45
1.425474 -3.797954 34.602848 63 43 45
1.425474 -3.723362 34.602848 65 44 46
1.422159 -3.640284 34.522373 66 45 46
2.773371 -6.228219 67.322548 63 41 43
2.754632 -6.041992 66.867661 63 40 42
2.760850 -5.911161 67.018608 63 41 43
2.773371 -5.792845 67.322548 65 42 43
2.786006 -5.673450 67.629250 67 43 44
2.786006 -5.527664 67.629250 69 45 46
2.779674 -5.369647 67.475548 70 47 48
2.792367 -5.248047 67.783661 69 47 49
2.792367 -5.101928 67.783661 69 47 49
2.786006 -4.944520 67.629250 69 47 48
2.773371 -4.776972 67.322548 67 46 47
2.779674 -4.642374 67.475548 66 45 46
2.818103 -4.559089 68.408394 65 44 45
2.805176 -4.391387 68.094589 64 43 44
2.805176 -4.244597 68.094589 65 43 45
2.786006 -1.737231 67.629250 64 43 46
2.798757 -1.598729 67.938766 63 42 45
2.786006 -1.445660 67.629250 61 42 43
2.786006 -1.299874 67.629250 61 42 42
2.805176 -1.162029 68.094589 62 43 42
2.818103 -1.019918 68.408394 62 43 41
2.805176 -0.868451 68.094589 63 42 41
2.805176 -0.721662 68.094589 64 42 41
2.811625 -0.576194 68.251129 63 40 39
2.818103 -0.430057 68.408394 61 38 37
2.811625 -0.281941 68.251129 62 38 38
2.805176 -0.134506 68.094589 63 39 39
2.805176 0.012283 68.094589 64 40 41
2.805176 0.159072 68.094589 64 41 43
2.798757 0.305161 67.938766 64 42 43
2.805176 0.452650 68.094589 64 42 43
2.792367 0.596702 67.783661 62 41 42
2.792367 0.742821 67.783661 59 40 41
2.736145 1.300572 66.418884 52 36 37
2.730037 1.583383 66.270630 55 38 39
2.711877 1.714757 65.829803 57 39 41
2.693957 1.844395 65.394806 59 39 41
2.811625 5.455989 68.251129 54 37 38
2.798757 5.577473 67.938766 53 37 38
2.798757 6.163285 67.938766 58 41 40
2.871025 8.575952 69.693054 55 39 40
2.792367 8.779350 67.783661 54 38 38
2.884567 9.522065 70.021797 52 37 37
2.891387 9.695876 70.187332 51 36 37
2.884567 9.823952 70.021797 49 36 35
2.884567 9.974895 70.021797 47 34 34
2.891387 10.149776 70.187332 46 34 33
2.891387 10.301077 70.187332 45 33 32
2.891387 10.452377 70.187332 44 33 33
2.891387 10.603677 70.187332 45 34 33
2.898238 10.780463 70.353653 45 35 34
2.898238 10.932122 70.353653 45 35 34
2.905123 11.110108 70.520767 44 35 34
2.891387 11.208879 70.187332 43 34 33
1.798613 7.443170 43.660652 43 35 33
1.795972 7.526219 43.596539 43 34 32
2.954243 14.235158 71.713142 40 30 31
2.940040 14.320566 71.368370 41 30 31
2.954243 14.544337 71.713142 41 30 32
2.961396 14.734517 71.886787 42 30 32
2.961396 14.889481 71.886787 42 30 32
2.940040 14.935950 71.368370 42 30 32
2.925973 15.017597 71.026894 40 30 31
2.811625 15.460588 68.251129 33 28 28
2.811625 15.607714 68.251129 34 29 29
2.798757 15.682735 67.938766 35 29 29
3.514531 22.819986 85.313911 29 26 24
2.877780 20.040836 69.857040 27 23 22
2.857609 20.049896 69.367386 27 23 23
2.831150 20.012398 68.725098 27 23 23
3.000132 -12.668169 69.205696 62 47 47
3.007142 -12.548235 69.367386 61 46 46
3.028368 -12.486222 69.857040 59 45 45
3.028368 -12.335634 69.857040 58 44 45
3.021260 -12.156443 69.693054 58 44 45
3.035511 -12.062840 70.021797 58 44 45
3.028368 -11.883869 69.857040 59 44 47
3.042687 -11.788757 70.187332 60 45 48
3.042687 -11.486157 70.187332 62 48 50
3.042687 -11.334857 70.187332 63 49 50
3.035511 -11.157181 70.021797 63 49 50
2.834927 -9.997014 65.394806 64 48 47
2.810167 -9.769966 64.823669 64 47 47
2.082616 -6.204926 48.040844 63 45 46
2.059291 -6.033031 47.502789 62 45 46
1.505329 -4.035841 34.724258 60 43 47
1.500066 -3.947138 34.602848 60 43 47
1.498320 -3.868038 34.562565 62 43 47
1.500066 -3.797954 34.602848 64 44 47
1.500066 -3.723362 34.602848 65 45 47
1.498320 -3.644522 34.562565 67 45 47
2.911893 -6.358924 67.170235 64 43 44
2.905320 -6.200100 67.018608 64 42 44
2.885777 -6.014898 66.567810 64 42 44
2.885777 -5.871400 66.567810 64 42 43
2.905320 -5.766692 67.018608 65 42 44
2.918496 -5.647720 67.322548 67 44 45
2.918496 -5.502595 67.322548 69 45 46
2.911893 -5.345350 67.170235 69 46 48
2.925129 -5.224192 67.475548 69 47 49
2.931792 -5.090306 67.629250 68 47 49
2.925129 -4.933283 67.475548 68 47 48
2.918496 -4.776972 67.322548 67 46 47
2.925129 -4.642374 67.475548 65 44 46
2.951965 -4.538176 68.094589 64 43 45
2.938485 -4.371335 67.783661 63 42 44
2.945210 -2.184541 67.938766 62 42 45
2.945210 -2.038088 67.938766 62 42 45
2.958751 -1.900332 68.251129 62 42 44
2.958751 -1.753206 68.251129 61 41 44
2.951965 -1.602396 68.094589 60 40 43
2.945210 -1.452276 67.938766 58 40 41
2.945210 -1.305823 67.938766 58 41 40
2.965568 -1.167384 68.408394 59 41 40
2.965568 -1.019918 68.408394 59 41 40
2.951965 -0.868451 68.094589 60 41 40
2.945210 -0.720010 67.938766 61 41 40
2.965568 -0.577522 68.408394 62 40 39
2.972417 -0.431050 68.566376 61 39 37
2.965568 -0.282591 68.408394 61 39 38
2.951965 -0.134506 68.094589 63 40 39
2.958751 0.012311 68.251129 64 41 41
2.958751 0.159438 68.251129 65 42 43
2.951965 0.305861 68.094589 65 43 43
2.958751 0.453691 68.251129 64 43 43
2.945210 0.598067 67.938766 62 42 42
2.866496 1.579856 66.123032 55 38 40
2.853784 1.714757 65.829803 57 39 41
2.834927 1.844395 65.394806 60 39 42
2.945210 5.431019 67.938766 54 37 38
2.993155 8.496176 69.044746 56 39 39
3.042687 9.695876 70.187332 51 36 37
3.035511 9.823952 70.021797 49 36 36
3.035511 9.974895 70.021797 47 35 34
3.035511 10.125838 70.021797 46 34 33
3.042687 10.301077 70.187332 45 33 33
3.035511 10.427725 70.021797 44 33 33
3.042687 10.603677 70.187332 45 34 33
3.049897 10.780463 70.353653 45 35 34
3.049897 11.083780 70.353653 45 35 34
1.881662 7.493210 43.405323 43 34 32
3.079083 13.945827 71.026894 40 30 30
3.101341 14.200856 71.540344 41 30 31
3.071734 14.218032 70.857384 41 30 31
3.079083 14.405157 71.026894 41 31 32
3.101341 14.663507 71.540344 42 31 33
3.108832 14.853516 71.713142 42 31 33
3.093886 14.935950 71.368370 42 31 32
2.951965 15.571917 68.094589 34 29 29
3.719817 22.951895 85.807060 29 26 24
3.035511 20.088102 70.021797 26 22 21
3.014184 20.096851 69.529839 26 23 22
2.979298 20.012398 68.725098 27 23 22
3.120223 -12.698948 68.566376 64 49 49
3.149316 -12.668169 69.205696 62 47 47
3.141992 -12.489871 69.044746 60 46 45
3.171494 -12.456912 69.693054 58 45 45
3.178957 -12.335634 69.857040 57 44 45
3.164067 -12.127974 69.529839 57 44 45
3.178957 -12.034458 69.857040 57 44 45
3.178957 -11.883869 69.857040 57 45 46
3.201556 -11.816693 70.353653 58 46 47
3.193987 -11.486157 70.187332 61 48 49
3.186454 -11.308124 70.021797 63 49 50
3.164067 -11.078793 69.529839 64 49 50
3.134702 -10.827481 68.884552 63 49 49
2.982465 -10.019083 65.539169 65 48 48
2.943479 -9.748681 64.682442 66 48 48
2.911760 -9.505699 63.985435 66 48 48
2.094661 -5.746736 46.029835 63 47 47
1.589478 -4.059582 34.928520 61 44 48
1.578337 -3.956360 34.683693 61 43 48
1.576496 -3.877065 34.643223 63 44 47
1.578337 -3.806828 34.683693 64 44 47
1.578337 -3.732061 34.683693 66 45 47
1.574658 -3.648770 34.602848 67 45 48
3.049789 -6.633509 67.018608 67 45 46
3.049789 -6.489039 67.018608 67 44 46
3.049789 -6.344570 67.018608 66 44 46
3.036082 -6.172235 66.717400 66 44 45
3.015751 -5.988046 66.270630 66 43 45
3.022498 -5.858265 66.418884 66 43 45
3.036082 -5.740774 66.717400 66 43 45
3.049789 -5.622222 67.018608 68 44 45
3.056689 -5.490146 67.170235 68 45 46
3.056689 -5.345350 67.170235 68 46 48
3.063621 -5.212346 67.322548 68 46 48
3.070583 -5.078738 67.475548 68 46 48
3.063621 -4.922096 67.322548 68 46 47
3.056689 -4.766164 67.170235 66 45 47
3.070583 -4.642374 67.475548 64 43 45
3.091663 -4.527791 67.938766 62 42 44
3.077578 -4.361377 67.629250 61 41 43
3.120223 -2.204722 68.566376 60 40 43
3.113034 -2.052176 68.408394 59 40 42
3.134702 -1.917969 68.884552 59 40 42
3.134702 -1.769477 68.884552 58 39 41
3.120223 -1.613498 68.566376 58 39 40
3.105877 -1.458953 68.251129 57 39 39
3.127446 -1.320936 68.725098 57 39 38
3.120223 -1.170080 68.566376 56 39 38
3.113034 -1.019918 68.408394 57 40 39
3.098754 -0.868451 68.094589 58 40 39
3.091663 -0.720010 67.938766 59 41 39
3.113034 -0.577522 68.408394 60 41 39
3.127446 -0.432048 68.725098 60 40 38
3.113034 -0.282591 68.408394 61 40 38
3.105877 -0.134815 68.251129 62 41 39
3.113034 0.012340 68.408394 64 42 40
3.105877 0.159438 68.251129 65 43 42
3.098754 0.305861 68.094589 65 43 43
3.098754 0.452650 68.094589 64 43 42
3.091663 0.598067 67.938766 63 42 42
3.002348 1.576345 65.976097 57 38 40
2.989063 1.710963 65.684166 59 40 42
2.975896 1.844395 65.394806 61 41 43
2.969355 1.981001 65.251083 63 40 43
3.186454 10.125838 70.021797 46 33 33
3.178957 10.403190 69.857040 45 33 33
1.963745 7.449645 43.152969 43 34 33
3.232193 13.945827 71.026894 40 30 31
3.255558 14.200856 71.540344 40 30 30
3.216802 14.184179 70.688675 40 30 31
3.209161 14.302507 70.520767 41 31 32
3.255558 14.663507 71.540344 42 31 33
3.271324 14.889481 71.886787 42 31 33
3.263422 15.008105 71.713142 42 31 33
3.098754 15.571917 68.094589 36 29 29
3.084604 15.793049 67.783661 36 29 30
3.916106 23.018421 86.055771 28 24 23
3.178957 20.040836 69.857040 25 22 21
3.156674 20.049896 69.367386 26 22 21
3.105877 19.874380 68.251129 26 22 22
3.260499 -12.669688 68.408394 64 49 48
3.298500 -12.668169 69.205696 61 47 46
3.290829 -12.489871 69.044746 59 46 44
3.329545 -12.486222 69.857040 58 45 44
3.321729 -12.306677 69.693054 57 44 44
3.306207 -12.099637 69.367386 56 45 44
3.329545 -12.034458 69.857040 57 45 44
3.345288 -11.940058 70.187332 56 45 45
3.385303 -11.929771 71.026894 57 46 46
3.353215 -11.665034 70.353653 59 47 47
3.361180 -11.540724 70.520767 61 48 48
3.345288 -11.334857 70.187332 63 49 50
3.313950 -11.078793 69.529839 64 49 50
3.268029 -10.777470 68.566376 64 48 49
3.201486 -10.413223 67.170235 65 47 48
3.123745 -10.019083 65.539169 66 47 48
3.082912 -9.748681 64.682442 67 48 48
3.056278 -9.526230 64.123634 67 48 48
3.089643 -9.490490 64.823669 67 48 48
3.062893 -9.269794 64.262428 66 47 48
2.217957 -5.910101 46.534863 65 47 47
2.187104 -5.728971 45.887547 65 48 48
1.662816 -3.979606 34.887478 62 43 48
1.655037 -3.886134 34.724258 63 43 47
1.660865 -3.749583 34.846527 66 44 47
3.187064 -6.618569 66.867661 68 45 48
3.194259 -6.489039 67.018608 68 45 48
3.187064 -6.330280 66.867661 68 44 48
3.172773 -6.158396 66.567810 69 45 48
3.158609 -5.988046 66.270630 69 46 48
3.158609 -5.845189 66.270630 69 46 48
3.172773 -5.727902 66.567810 68 45 47
3.187064 -5.609560 66.867661 68 44 46
3.201486 -5.490146 67.170235 68 44 46
3.201486 -5.345350 67.170235 68 45 47
3.208745 -5.212346 67.322548 68 45 47
3.208745 -5.067221 67.322548 68 45 47
3.208745 -4.922096 67.322548 68 45 47
3.201486 -4.766164 67.170235 66 45 46
3.216038 -4.642374 67.475548 64 43 45
3.230723 -4.517453 67.783661 62 42 43
3.216038 -4.351465 67.475548 61 41 42
3.306207 -2.230478 69.367386 58 38 40
3.306207 -2.080945 69.367386 58 38 39
3.313950 -1.935936 69.529839 57 38 39
3.313950 -1.786053 69.529839 57 38 39
3.290829 -1.624755 69.044746 57 37 38
3.290829 -1.475917 69.044746 57 37 38
3.298500 -1.330174 69.205696 57 38 38
3.283194 -1.175509 68.884552 56 39 39
3.268029 -1.022274 68.566376 56 39 39
3.253004 -0.870447 68.251129 57 40 40
3.245543 -0.721662 68.094589 58 41 40
3.253004 -0.576194 68.251129 59 41 39
3.268029 -0.431050 68.566376 60 41 39
3.260499 -0.282591 68.408394 61 41 39
3.245543 -0.134506 68.094589 62 42 39
3.253004 0.012311 68.251129 63 43 41
3.245543 0.159072 68.094589 65 43 43
3.238116 0.305161 67.938766 65 43 43
3.245543 0.452650 68.094589 64 43 43
3.230723 0.596702 67.783661 63 42 42
3.137598 1.572850 65.829803 59 40 41
3.130656 1.710963 65.684166 61 41 43
3.116865 1.844395 65.394806 63 41 43
3.116865 1.985364 65.394806 64 40 43
3.103194 2.117007 65.107986 64 39 42
3.130656 2.560521 65.684166 64 37 38
3.321729 10.378769 69.693054 47 33 32
3.353215 11.083780 70.353653 48 35 34
2.047839 7.417302 42.965618 44 34 33
3.385303 14.098936 71.026894 40 31 30
3.353215 14.116956 70.353653 40 31 31
3.329545 14.167895 69.857040 41 31 32
3.377223 14.523521 70.857384 42 31 33
3.409775 14.817724 71.540344 42 31 33
2.207577 12.189322 46.317070 31 26 25
4.113537 23.085335 86.305939 28 24 23
4.077973 23.070189 85.559776 28 24 24
4.161932 24.109869 87.321304 29 24 23
3.283194 19.613354 68.884552 25 22 20
3.313950 19.946968 69.529839 25 22 21
3.290829 19.956640 69.044746 25 22 21
3.245543 19.828796 68.094589 26 21 21
3.223364 19.839079 67.629250 26 21 21
3.407965 -12.669688 68.408394 64 49 47
3.447685 -12.668169 69.205696 61 48 44
3.439667 -12.489871 69.044746 59 46 44
3.471964 -12.456912 69.693054 58 45 43
3.463833 -12.277856 69.529839 57 45 43
3.447685 -12.071432 69.205696 57 45 43
3.471964 -12.006207 69.693054 57 45 43
3.496588 -11.940058 70.187332 57 45 44
3.538413 -11.929771 71.026894 58 46 45
3.521564 -11.720582 70.688675 60 47 46
3.521564 -11.568201 70.688675 62 48 48
3.496588 -11.334857 70.187332 64 49 49
3.463833 -11.078793 69.529839 65 49 49
3.415835 -10.777470 68.566376 65 48 49
3.346282 -10.413223 67.170235 66 47 48
3.265026 -10.019083 65.539169 66 47 48
3.215341 -9.727489 64.541832 67 47 47
3.187622 -9.505699 63.985435 67 47 47
3.208366 -9.428730 64.401825 67 47 47
2.254659 -6.040617 45.257992 65 45 45
2.258102 -5.952129 45.327087 66 45 45
2.303827 -5.873278 46.244926 66 48 47
2.278978 -5.711317 45.746136 66 49 48
3.353870 -6.808718 67.322548 69 45 49
3.338728 -6.633509 67.018608 69 45 49
3.338728 -6.489039 67.018608 68 45 48
3.331209 -6.330280 66.867661 68 44 48
3.316271 -6.158396 66.567810 69 45 48
3.301466 -5.988046 66.270630 70 47 50
3.308851 -5.858265 66.418884 70 47 50
3.323723 -5.740774 66.717400 69 46 48
3.338728 -5.622222 67.018608 67 45 47
3.346282 -5.490146 67.170235 67 44 46
3.346282 -5.345350 67.170235 67 44 46
3.361492 -5.224192 67.475548 67 44 46
3.353870 -5.067221 67.322548 67 44 47
3.361492 -4.933283 67.475548 67 44 47
3.346282 -4.766164 67.170235 66 44 46
3.369149 -4.652949 67.629250 64 43 45
3.384569 -4.527791 67.938766 62 42 43
3.369149 -4.361377 67.629250 61 41 42
2.275472 -1.862530 45.675758 66 41 44
3.480133 -2.246222 69.857040 58 37 39
3.471964 -2.090715 69.693054 57 37 38
3.480133 -1.945046 69.857040 57 36 37
3.480133 -1.794458 69.857040 57 36 37
3.455740 -1.632347 69.367386 57 36 37
3.455740 -1.482814 69.367386 57 37 38
3.455740 -1.333282 69.367386 57 38 38
3.439667 -1.178243 69.044746 57 38 39
3.423742 -1.024640 68.725098 57 39 39
3.407965 -0.872453 68.408394 57 40 40
3.400130 -0.723321 68.251129 58 41 39
3.407965 -0.577522 68.408394 59 41 39
3.415835 -0.431050 68.566376 60 41 40
3.407965 -0.282591 68.408394 61 42 40
3.392332 -0.134506 68.094589 62 42 41
3.392332 0.012283 68.094589 63 43 42
3.392332 0.159072 68.094589 64 43 44
3.384569 0.305161 67.938766 64 43 43
3.384569 0.451614 67.938766 63 42 43
3.376842 0.596702 67.783661 62 42 42
3.294113 1.437317 66.123032 61 41 42
3.279505 1.572850 65.829803 62 41 42
3.265026 1.707186 65.539169 63 41 42
3.265026 1.848467 65.539169 63 41 42
3.257834 1.985364 65.394806 64 40 42
3.250674 2.121660 65.251083 64 39 42
3.250674 2.262320 65.251083 64 39 41
3.272249 2.418928 65.684166 64 39 40
3.279505 2.566198 65.829803 64 39 40
3.272249 2.702114 65.684166 63 39 40
3.294113 3.860480 66.123032 56 40 39
3.338728 7.380035 67.018608 55 36 39
3.323723 7.490686 66.717400 56 37 39
3.463833 10.354463 69.529839 48 33 32
3.496588 11.057578 70.187332 50 36 34
2.143560 7.706312 43.027885 42 32 34
3.529968 14.065288 70.857384 40 32 31
3.488341 14.050366 70.021797 40 31 31
3.480133 14.167895 69.857040 41 31 32
3.513199 14.454526 70.520767 42 31 33
4.250163 23.003895 85.313911 29 24 24
4.350167 24.109869 87.321304 29 24 24
3.407965 19.477777 68.408394 25 22 20
3.447685 19.853975 69.205696 26 22 21
3.431686 19.910337 68.884552 26 22 21
3.400130 19.874380 68.251129 26 22 22
3.376842 19.884373 67.783661 25 21 22
3.555430 -12.669688 68.408394 63 49 45
3.588504 -12.638708 69.044746 60 47 43
3.580178 -12.460892 68.884552 59 47 43
3.613716 -12.427739 69.529839 59 46 43
3.596869 -12.220616 69.205696 59 46 42
3.580178 -12.015416 68.884552 59 46 43
3.605273 -11.950104 69.367386 59 46 43
3.691523 -11.929771 71.026894 59 46 44
3.673944 -11.720582 70.688675 61 47 45
3.665218 -11.540724 70.520767 63 48 47
3.639285 -11.308124 70.021797 64 48 48
3.605273 -11.052908 69.367386 65 48 48
3.531022 -10.678821 67.938766 66 48 48
3.483198 -10.389717 67.018608 66 47 48
3.406306 -10.019083 65.539169 67 48 48
3.347194 -9.706388 64.401825 66 47 48
2.341512 -6.013118 45.051960 65 44 43
2.384941 -5.827889 45.887547 66 48 46
3.514935 -6.985523 67.629250 67 44 49
3.498995 -6.808718 67.322548 68 44 49
3.491078 -6.648517 67.170235 69 45 49
3.483198 -6.489039 67.018608 68 44 48
3.483198 -6.344570 67.018608 68 44 47
3.459768 -6.158396 66.567810 69 45 48
3.452028 -6.001442 66.418884 70 46 49
3.452028 -5.858265 66.418884 70 47 50
3.467543 -5.740774 66.717400 69 46 49
3.491078 -5.490146 67.170235 66 44 46
3.491078 -5.345350 67.170235 66 43 45
3.498995 -5.212346 67.322548 66 43 45
3.498995 -5.067221 67.322548 66 43 46
3.506947 -4.933283 67.475548 66 43 46
3.498995 -4.776972 67.322548 66 44 46
3.522960 -4.663572 67.783661 65 43 46
3.539121 -4.538176 68.094589 63 42 44
3.514935 -4.361377 67.629250 62 41 42
2.384941 -1.970084 45.887547 68 42 44
2.373933 -1.862530 45.675758 66 41 44
3.630722 -2.246222 69.857040 59 37 39
3.622199 -2.090715 69.693054 58 37 38
3.630722 -1.945046 69.857040 58 37 38
3.630722 -1.794458 69.857040 58 37 38
3.613716 -1.636170 69.529839 58 37 38
3.605273 -1.482814 69.367386 58 38 39
3.605273 -1.333282 69.367386 58 38 39
3.588504 -1.178243 69.044746 58 39 39
3.580178 -1.027017 68.884552 57 39 39
3.563641 -0.874468 68.566376 57 40 39
3.555430 -0.724987 68.408394 58 41 39
3.555430 -0.577522 68.408394 59 41 39
3.563641 -0.431050 68.566376 60 41 40
3.555430 -0.282591 68.408394 61 42 41
3.539121 -0.134506 68.094589 63 42 42
3.539121 0.012283 68.094589 64 43 44
3.531022 0.158708 67.938766 64 43 45
3.531022 0.305161 67.938766 62 42 43
3.531022 0.451614 67.938766 61 40 42
3.514935 0.595343 67.629250 61 40 42
3.413842 1.569371 65.684166 63 41 43
3.398803 1.703426 65.394806 63 40 42
3.398803 1.844395 65.394806 63 40 41
3.406306 1.989747 65.539169 63 39 41
3.391333 2.121660 65.251083 64 39 42
3.391333 2.262320 65.251083 64 39 42
3.429015 2.429679 65.976097 63 39 41
3.429015 2.571901 65.976097 63 40 41
3.421412 2.708105 65.829803 63 40 41
3.452028 3.161869 66.418884 62 43 41
3.452028 3.877753 66.418884 57 40 39
3.429015 4.563012 65.976097 56 38 37
3.483198 5.790870 67.018608 52 34 36
3.498995 7.268380 67.322548 54 36 40
3.475353 7.363413 66.867661 55 36 40
3.459768 7.473891 66.567810 56 37 40
3.444323 7.583383 66.270630 56 37 39
3.467543 7.922147 66.717400 57 38 38
3.452028 8.029878 66.418884 56 39 38
3.605273 10.180737 69.367386 49 33 33
3.605273 10.330270 69.367386 49 32 32
3.596869 10.455374 69.205696 50 33 33
3.605273 10.629335 69.367386 52 35 34
2.233078 7.695160 42.965618 43 34 35
2.233078 7.787779 42.965618 41 33 33
3.639285 14.050366 70.021797 40 31 31
3.630722 14.167895 69.857040 40 30 32
3.691523 14.558267 71.026894 41 31 33
3.718209 14.817724 71.540344 43 31 33
3.656532 18.060083 70.353653 32 28 26
3.656532 18.211742 70.353653 33 29 26
4.434071 23.003895 85.313911 29 24 24
4.565256 24.063181 87.837997 29 24 24
4.538402 24.109869 87.321304 29 24 24
3.563641 19.522760 68.566376 25 22 20
3.596869 19.853975 69.205696 26 22 21
3.580178 19.910337 68.884552 26 22 21
3.563641 19.966179 68.566376 26 22 22
3.580178 20.207321 68.884552 25 21 22
3.702895 -12.669688 68.408394 63 48 45
3.737341 -12.638708 69.044746 60 47 43
3.720038 -12.432048 68.725098 59 46 43
3.754805 -12.398703 69.367386 60 46 43
3.728670 -12.163908 68.884552 60 46 43
3.702895 -11.932361 68.408394 61 46 43
3.720038 -11.839455 68.725098 61 46 44
3.891178 -12.074200 71.886787 61 45 44
3.881779 -11.890446 71.713142 62 46 45
3.835457 -11.595810 70.857384 63 47 46
3.790228 -11.308124 70.021797 64 47 47
3.746053 -11.027143 69.205696 65 47 47
3.611363 -10.343021 66.717400 66 47 48
3.531993 -9.975043 65.251083 66 47 49
3.478477 -9.685378 64.262428 66 47 49
2.434934 -6.004007 44.983700 64 43 42
3.644119 -7.098967 67.322548 66 43 48
3.652401 -6.969646 67.475548 67 44 49
3.644119 -6.808718 67.322548 68 44 49
3.627667 -6.633509 67.018608 68 44 49
3.627667 -6.489039 67.018608 69 44 48
3.619497 -6.330280 66.867661 68 44 47
3.603266 -6.158396 66.567810 68 45 48
3.587180 -5.988046 66.270630 69 46 49
3.587180 -5.845189 66.270630 69 47 50
3.627667 -5.333283 67.018608 65 43 45
3.635875 -5.200553 67.170235 65 42 45
3.644119 -5.067221 67.322548 65 42 45
3.660721 -4.944520 67.629250 66 43 46
3.644119 -4.776972 67.322548 67 44 47
3.677475 -4.674244 67.938766 66 44 46
3.694383 -4.548608 68.251129 64 43 44
3.669079 -4.371335 67.783661 63 42 42
3.669079 -4.079097 67.783661 61 40 40
3.669079 -3.932978 67.783661 61 39 39
2.495430 -2.078640 46.101307 67 42 42
2.480026 -1.967044 45.816730 67 42 43
3.772434 -2.240950 69.693054 60 38 40
3.754805 -2.080945 69.367386 59 38 39
3.772434 -1.940480 69.693054 59 37 39
3.772434 -1.790245 69.693054 59 37 39
3.754805 -1.632347 69.367386 59 37 39
3.746053 -1.479358 69.205696 59 38 39
3.746053 -1.330174 69.205696 59 38 40
3.737341 -1.178243 69.044746 59 39 40
3.720038 -1.024640 68.725098 59 39 39
3.711447 -0.874468 68.566376 58 40 39
3.702895 -0.724987 68.408394 58 40 39
3.702895 -0.577522 68.408394 59 41 39
3.711447 -0.431050 68.566376 59 41 39
3.702895 -0.282591 68.408394 60 41 41
3.685910 -0.134506 68.094589 62 42 42
3.685910 0.012283 68.094589 63 42 44
3.677475 0.158708 67.938766 63 43 45
3.677475 0.305161 67.938766 61 41 43
3.669079 0.450583 67.783661 58 38 41
3.660721 0.595343 67.629250 59 38 42
2.257102 0.636735 41.698376 59 39 42
3.547586 1.565906 65.539169 63 41 43
3.531993 1.699682 65.251083 63 40 42
3.547586 1.989747 65.539169 64 39 42
3.595205 2.589162 66.418884 63 40 41
3.579191 2.720168 66.123032 63 41 41
3.611363 5.764844 66.717400 53 35 37
3.611363 5.908664 66.717400 53 37 38
3.635875 7.251935 67.170235 54 36 41
3.611363 7.346866 66.717400 55 36 41
3.579191 7.423954 66.123032 56 37 40
3.563318 7.532939 65.829803 56 37 40
3.579191 7.709032 66.123032 57 37 39
3.579191 7.851571 66.123032 57 38 38
3.563318 7.958660 65.829803 56 39 38
3.754805 9.732139 69.367386 52 37 36
3.754805 9.881672 69.367386 52 36 36
3.754805 10.031204 69.367386 51 34 35
3.754805 10.180737 69.367386 50 33 34
3.746053 10.306190 69.205696 50 33 33
3.737341 10.431059 69.044746 51 34 33
3.737341 10.579896 69.044746 53 35 34
2.263460 6.948388 41.815834 48 32 32
2.312312 7.374612 42.718334 46 34 34
3.790228 14.050366 70.021797 40 30 31
3.781310 14.167895 69.857040 40 30 32
3.853853 14.593179 71.197220 41 30 32
3.863117 14.782104 71.368370 42 31 33
3.835457 14.829011 70.857384 42 30 32
3.808191 17.908424 70.353653 32 27 25
3.799188 18.017389 70.187332 33 28 25
3.799188 18.168690 70.187332 33 29 26
4.840532 24.498058 89.425430 29 23 25
4.726637 24.109869 87.321304 28 23 24
3.763599 19.797085 69.529839 26 22 21
3.754805 19.900364 69.367386 27 22 21
3.754805 20.049896 69.367386 27 22 21
3.850361 -12.669688 68.408394 63 48 45
3.886178 -12.638708 69.044746 61 47 45
3.868187 -12.432048 68.725098 61 46 44
3.895237 -12.369801 69.205696 61 45 44
3.868187 -12.135751 68.725098 62 45 44
3.841510 -11.904930 68.251129 62 46 45
3.841510 -11.757804 68.251129 62 46 45
3.868187 -10.950566 68.725098 64 46 47
3.730037 -10.273760 66.270630 65 46 48
3.664598 -9.953168 65.107986 65 47 49
3.609194 -9.664459 64.123634 66 47 50
2.539600 -6.022256 45.120430 62 41 41
3.780671 -7.082906 67.170235 66 43 47
3.797856 -6.969646 67.475548 67 44 48
3.789244 -6.808718 67.322548 68 44 48
3.763641 -6.618569 66.867661 68 44 47
3.755183 -6.459876 66.717400 68 43 46
3.746764 -6.301894 66.567810 68 43 46
3.721730 -5.974710 66.123032 68 45 48
3.746764 -5.297409 66.567810 65 42 46
3.755183 -5.165493 66.717400 65 42 45
3.772137 -5.044344 67.018608 65 42 46
3.797856 -4.933283 67.475548 66 44 47
3.780671 -4.766164 67.170235 67 45 47
3.823928 -4.674244 67.938766 67 45 46
3.832699 -4.538176 68.094589 65 44 44
3.806507 -4.361377 67.629250 64 43 43
3.806507 -4.215591 67.629250 63 41 41
3.823928 -4.088431 67.938766 62 40 40
3.823928 -3.941978 67.938766 62 40 39
2.598844 -2.081873 46.173004 66 41 41
3.904338 -2.230478 69.367386 61 40 41
3.886178 -2.071266 69.044746 61 39 41
3.904338 -1.931412 69.367386 61 38 40
3.913482 -1.786053 69.529839 61 38 40
3.904338 -1.632347 69.367386 61 38 40
3.895237 -1.479358 69.205696 61 38 40
3.895237 -1.330174 69.205696 61 39 40
3.886178 -1.178243 69.044746 60 39 40
3.868187 -1.024640 68.725098 60 39 39
3.859253 -0.874468 68.566376 58 39 38
3.859253 -0.726662 68.566376 58 39 38
3.850361 -0.577522 68.408394 58 39 38
3.859253 -0.431050 68.566376 58 39 38
3.850361 -0.282591 68.408394 59 40 39
3.832699 -0.134506 68.094589 59 40 40
3.832699 0.012283 68.094589 60 41 42
3.823928 0.158708 67.938766 61 42 43
3.823928 0.305161 67.938766 60 41 43
3.815198 0.450583 67.783661 58 39 41
3.806507 0.595343 67.629250 58 38 41
2.353601 0.638529 41.815834 60 39 42
3.721730 5.713487 66.123032 54 35 38
3.738382 7.313994 66.418884 55 36 41
3.697028 7.374680 65.684166 55 37 41
3.688867 7.499681 65.539169 56 37 40
3.688867 7.640961 65.539169 57 37 39
3.648595 7.976758 64.823669 57 39 38
3.922668 9.477361 69.693054 52 37 37
3.904338 9.582606 69.367386 53 37 37
3.904338 9.732139 69.367386 53 36 36
3.895237 9.858638 69.205696 53 36 36
3.895237 10.007822 69.205696 52 35 36
3.895237 10.157005 69.205696 51 34 34
3.886178 10.282222 69.044746 52 34 34
3.877162 10.406857 68.884552 53 34 34
3.868187 10.530915 68.725098 53 35 34
2.343698 6.739629 41.639893 52 33 33
2.343698 6.829391 41.639893 50 32 32
2.346990 6.928870 41.698376 48 32 31
2.397499 7.261629 42.595757 46 33 32
2.397499 7.353451 42.595757 46 34 34
3.931898 14.167895 69.857040 40 29 32
3.988202 14.523521 70.857384 40 29 32
3.997743 14.711377 71.026894 40 29 32
3.978706 14.793703 70.688675 40 29 31
3.941171 14.805083 70.021797 40 29 30
3.950489 14.991385 70.187332 40 29 29
3.913482 15.000833 69.529839 39 28 29
3.959850 17.908424 70.353653 34 27 24
3.941171 17.974895 70.021797 34 28 25
3.941171 18.125839 70.021797 33 28 26
4.973383 24.396891 88.360840 28 23 25
3.913482 19.946968 69.529839 27 23 22
3.997826 -12.669688 68.408394 64 47 47
4.035016 -12.638708 69.044746 63 47 47
4.016335 -12.432048 68.725098 62 46 47
4.035016 -12.341034 69.044746 62 46 46
4.007059 -12.107724 68.566376 63 45 46
3.988636 -11.904930 68.251129 63 45 46
3.979488 -11.730836 68.094589 63 45 45
3.925467 -10.558020 67.170235 63 46 47
3.847132 -10.205420 65.829803 64 46 48
3.796623 -9.931389 64.965523 64 46 49
3.755534 -9.685378 64.262428 65 46 50
3.943310 -7.696919 67.475548 60 42 43
3.943310 -7.551465 67.475548 61 41 43
3.943310 -7.406010 67.475548 62 42 45
3.943310 -7.260556 67.475548 64 42 46
3.925467 -7.082906 67.170235 66 43 47
3.934369 -6.953843 67.322548 67 43 47
3.925467 -6.793314 67.170235 67 43 46
3.890261 -6.588889 66.567810 66 43 45
3.881558 -6.430972 66.418884 65 42 44
3.881558 -6.287796 66.418884 65 42 45
3.872894 -6.130903 66.270630 66 43 45
3.864269 -5.974710 66.123032 66 44 46
3.847132 -5.806307 65.829803 66 45 47
3.847132 -5.238680 65.829803 65 43 46
3.847132 -5.096773 65.829803 65 43 46
3.847132 -4.954866 65.829803 65 43 46
3.847132 -4.812959 65.829803 66 44 46
3.838621 -4.660718 65.684166 66 45 46
3.925467 -4.621368 67.170235 66 45 46
3.961317 -4.517453 67.783661 65 44 44
3.934369 -4.341598 67.322548 64 43 43
3.925467 -4.186978 67.170235 64 42 42
3.952293 -4.069805 67.629250 64 41 41
3.961317 -3.932978 67.783661 64 40 40
3.934369 -3.761099 67.322548 64 40 39
4.016335 -2.209825 68.725098 62 41 41
3.997826 -2.052176 68.408394 62 40 40
4.025653 -1.917969 68.884552 62 39 40
4.053871 -1.781880 69.367386 62 39 40
4.053871 -1.632347 69.367386 62 38 40
4.035016 -1.475917 69.044746 62 39 40
4.044421 -1.330174 69.205696 62 39 40
4.035016 -1.178243 69.044746 61 39 39
4.025653 -1.027017 68.884552 60 39 38
4.007059 -0.874468 68.566376 58 38 36
4.016335 -0.728344 68.725098 57 38 36
3.997826 -0.577522 68.408394 57 38 36
4.016335 -0.432048 68.725098 57 38 37
3.997826 -0.282591 68.408394 57 38 37
3.979488 -0.134506 68.094589 57 38 38
3.970381 0.012255 67.938766 57 39 39
3.961317 0.158346 67.783661 59 41 41
3.961317 0.304465 67.783661 59 41 42
3.961317 0.450583 67.783661 58 39 40
2.450645 0.640333 41.933956 60 39 42
2.440305 0.727645 41.757023 62 40 42
3.847132 5.688149 65.829803 54 35 39
3.872894 7.297668 66.270630 53 36 41
3.838621 7.374680 65.684166 54 37 41
3.821711 7.483162 65.394806 55 37 40
3.821711 7.624131 65.394806 56 37 40
3.788333 7.976758 64.823669 58 39 39
3.788333 8.116497 64.823669 57 39 39
3.788333 8.256235 64.823669 56 39 38
3.788333 8.395972 64.823669 54 38 38
4.007059 9.176340 68.566376 53 37 37
4.044421 9.411085 69.205696 52 36 37
4.025653 9.515906 68.884552 53 36 37
4.025653 9.664398 68.884552 54 36 37
4.016335 9.790174 68.725098 54 36 37
4.016335 9.938323 68.725098 53 36 36
4.016335 10.086471 68.725098 52 35 36
4.016335 10.234619 68.725098 52 35 35
3.997826 10.334921 68.408394 53 35 35
3.988636 10.458288 68.251129 53 35 35
2.436877 6.749095 41.698376 52 33 33
2.433460 6.829391 41.639893 50 32 31
2.436877 6.928870 41.698376 48 31 31
2.450645 7.058412 41.933956 47 32 31
2.475116 7.220193 42.352699 46 33 32
2.478652 7.321937 42.413204 46 34 34
2.058193 6.383577 35.218555 42 33 33
2.050894 6.436590 35.093666 40 32 31
4.063365 14.101535 69.529839 40 29 32
4.111509 14.420274 70.353653 39 29 31
4.121274 14.606545 70.520767 39 28 31
4.111509 14.723591 70.353653 39 28 31
4.082486 14.770248 69.857040 39 28 30
4.082486 14.920836 69.857040 39 28 29
4.044421 14.930899 69.205696 39 28 29
4.111509 17.908424 70.353653 35 27 24
4.092115 17.974895 70.021797 34 27 24
4.082486 18.083189 69.857040 33 27 25
4.053871 18.105970 69.367386 32 27 25
4.145292 -12.669688 68.408394 64 47 48
4.174145 -12.609385 68.884552 63 46 49
4.145292 -12.374757 68.408394 63 46 49
4.145292 -12.079826 68.408394 63 45 48
4.116835 -11.850445 67.938766 63 45 48
4.061076 -10.534186 67.018608 62 46 47
3.980214 -10.182842 65.684166 62 45 47
3.928071 -9.909704 64.823669 63 45 48
3.902509 -9.706388 64.401825 64 46 49
2.763528 -5.792081 45.605595 62 43 44
2.750851 -5.569793 45.396397 62 44 45
4.088765 -7.987828 67.475548 60 43 44
4.088765 -7.842374 67.475548 59 42 43
4.088765 -7.696919 67.475548 59 40 42
4.079494 -7.534341 67.322548 60 40 43
4.079494 -7.389216 67.322548 62 41 44
4.088765 -7.260556 67.475548 64 42 45
4.070264 -7.082906 67.170235 66 42 46
4.070264 -6.938110 67.170235 66 42 46
4.070264 -6.793314 67.170235 66 42 45
4.024735 -6.574149 66.418884 65 42 43
4.006808 -6.402327 66.123032 64 41 43
4.006808 -6.259788 66.123032 65 42 44
3.997904 -6.103654 65.976097 65 43 45
3.989039 -5.948214 65.829803 66 45 46
3.980214 -5.793461 65.684166 66 46 47
3.980214 -5.651868 65.684166 66 46 48
3.980214 -5.510275 65.684166 65 46 48
3.962680 -5.345032 65.394806 65 45 48
3.962680 -5.204063 65.394806 64 44 47
3.962680 -5.063094 65.394806 65 44 47
3.953971 -4.911307 65.251083 65 44 47
3.936667 -4.749769 64.965523 65 44 47
3.945300 -4.619834 65.107986 65 44 46
3.953971 -4.489329 65.251083 65 44 46
4.042824 -4.446392 66.717400 65 44 45
4.033759 -4.292925 66.567810 65 44 43
4.015751 -4.130903 66.270630 65 43 43
4.070264 -4.042182 67.170235 66 43 43
4.079494 -3.906224 67.322548 66 42 42
4.061076 -3.744119 67.018608 66 41 41
4.051929 -3.591542 66.867661 66 41 41
4.051929 -3.447398 66.867661 65 40 40
4.174145 -1.769477 68.884552 62 39 39
4.193605 -1.628542 69.205696 62 38 39
4.174145 -1.472493 68.884552 62 39 40
4.193605 -1.330174 69.205696 62 39 40
4.183853 -1.178243 69.044746 61 39 39
4.174145 -1.027017 68.884552 59 39 38
4.154865 -0.874468 68.566376 57 37 36
4.164483 -0.728344 68.725098 56 37 35
4.145292 -0.577522 68.408394 55 37 35
4.154865 -0.431050 68.566376 55 37 36
4.145292 -0.282591 68.408394 56 37 37
4.126276 -0.134506 68.094589 56 37 38
4.107435 0.012227 67.783661 56 38 39
4.098079 0.303771 67.629250 60 42 41
2.548239 0.642147 42.052750 60 38 41
2.533883 0.728670 41.815834 62 40 42
2.526765 0.816510 41.698376 63 40 43
2.523221 0.905127 41.639893 63 40 43
2.491768 1.071129 41.120834 61 38 41
2.478040 1.153382 40.894272 60 37 40
3.989039 5.688149 65.829803 56 36 39
4.061076 7.235565 67.018608 51 36 38
4.015751 7.297668 66.270630 52 36 39
3.980214 7.374680 65.684166 53 36 40
3.971427 7.499681 65.539169 55 37 40
3.962680 7.624131 65.394806 56 37 40
3.962680 7.765100 65.394806 57 38 40
3.953971 7.888693 65.251083 58 38 40
3.936667 7.994213 64.965523 58 38 40
3.936667 8.134257 64.965523 57 38 39
3.945300 8.292446 65.107986 56 38 39
3.953971 8.451331 65.251083 55 38 38
4.135762 9.134151 68.251129 53 37 37
4.164483 9.345730 68.725098 53 37 37
4.154865 9.471952 68.566376 53 37 38
4.145292 9.597593 68.408394 54 37 38
4.145292 9.745059 68.408394 54 37 38
4.145292 9.892524 68.408394 53 37 37
4.145292 10.039989 68.408394 52 36 37
4.135762 10.164036 68.251129 52 36 36
4.135762 10.311162 68.251129 53 35 36
4.126276 10.434301 68.094589 53 35 35
2.523221 6.829391 41.639893 50 32 31
2.526765 6.928870 41.698376 48 31 30
2.537457 7.048456 41.874813 47 31 31
2.131584 6.376014 35.176826 42 33 33
2.126544 6.436590 35.093666 41 32 32
2.126544 6.512240 35.093666 40 32 32
2.119030 6.564612 34.969662 40 31 32
4.213247 13.951653 69.529839 40 30 33
4.203403 14.068587 69.367386 40 30 31
4.223138 14.284872 69.693054 40 29 30
4.233075 14.469071 69.857040 40 28 31
4.243058 14.654140 70.021797 39 28 30
4.223138 14.735577 69.693054 39 27 30
4.213247 14.850949 69.529839 39 28 30
4.154865 14.792969 68.566376 39 28 30
4.233075 18.083189 69.857040 33 27 24
4.203403 18.105970 69.367386 32 26 24
2.098037 -5.975951 33.433830 63 46 51
2.070063 -5.825161 32.988049 63 45 50
4.121807 -10.182842 65.684166 62 44 46
4.067809 -9.909704 64.823669 63 44 47
4.224618 -8.114841 67.322548 61 43 46
4.224618 -7.969716 67.322548 60 42 45
4.224618 -7.824591 67.322548 59 41 44
4.224618 -7.679466 67.322548 59 40 43
4.224618 -7.534341 67.322548 60 40 43
4.224618 -7.389216 67.322548 62 41 44
4.224618 -7.244092 67.322548 63 41 45
4.215060 -7.082906 67.170235 65 42 45
4.205545 -6.922448 67.018608 65 42 45
4.205545 -6.777978 67.018608 65 41 44
4.149347 -6.544865 66.123032 64 41 44
4.121807 -6.359833 65.684166 65 41 44
4.130946 -6.232028 65.829803 66 42 45
4.130946 -6.090121 65.829803 66 44 46
4.121807 -5.935054 65.684166 67 45 47
4.112708 -5.780672 65.539169 67 46 49
4.112708 -5.639392 65.539169 67 47 49
4.103649 -5.486001 65.394806 66 47 49
4.094630 -5.333285 65.251083 66 46 49
4.094630 -5.192626 65.251083 65 45 48
4.094630 -5.051966 65.251083 65 45 48
4.076710 -4.889813 64.965523 65 45 48
4.067809 -4.739398 64.823669 65 45 48
4.076710 -4.609725 64.965523 65 44 46
4.076710 -4.469682 64.965523 65 44 46
4.103649 -4.358248 65.394806 65 44 45
4.130946 -4.245332 65.829803 66 44 44
4.121807 -4.094347 65.684166 67 44 44
4.167912 -3.996968 66.418884 68 44 45
4.177257 -3.862432 66.567810 68 44 44
4.177257 -3.718934 66.567810 67 43 43
4.177257 -3.575436 66.567810 67 42 43
4.177257 -3.431938 66.567810 67 41 43
4.094630 -2.660757 65.251083 65 43 43
4.067809 -2.224115 64.823669 64 44 42
4.312631 -1.617233 68.725098 61 37 36
4.282889 -1.458953 68.251129 61 39 38
4.322637 -1.324001 68.884552 62 39 39
4.322637 -1.175509 68.884552 61 39 39
4.312631 -1.024640 68.725098 58 38 37
4.292757 -0.872453 68.408394 56 37 35
4.292757 -0.724987 68.408394 54 37 34
4.282889 -0.576194 68.251129 54 36 35
4.292757 -0.430057 68.408394 53 36 36
4.282889 -0.281941 68.251129 54 36 37
4.263288 -0.134198 67.938766 54 37 37
2.650152 0.644887 42.232208 61 38 40
2.631436 0.730728 41.933956 62 39 42
2.620333 0.817659 41.757023 63 41 43
2.616652 0.906398 41.698376 63 41 43
2.605674 0.992106 41.523415 62 39 43
2.591177 1.075599 41.292408 60 38 41
2.573283 1.156568 41.007240 59 37 40
2.566194 1.241536 40.894272 58 36 39
4.196074 3.903954 66.867661 59 41 40
4.177257 4.029945 66.567810 59 42 40
4.186644 4.182821 66.717400 58 42 40
4.186644 4.326642 66.717400 55 39 37
4.167912 4.450459 66.418884 53 38 36
4.243865 6.426778 67.629250 55 39 40
4.322637 6.991544 68.884552 52 38 38
4.263288 7.042003 67.938766 51 38 38
4.205545 7.235565 67.018608 51 37 37
4.177257 7.330393 66.567810 51 36 38
4.140126 7.407456 65.976097 53 37 39
4.130946 7.532939 65.829803 54 37 40
4.130946 7.674846 65.829803 56 38 40
4.112708 7.782242 65.539169 57 38 40
4.103649 7.906069 65.394806 58 38 40
4.094630 8.029353 65.251083 58 38 40
4.085650 8.152096 65.107986 57 38 39
4.121807 8.365830 65.684166 56 37 39
4.167912 8.602585 66.418884 55 37 38
4.282889 9.134151 68.251129 53 37 37
4.302671 9.324146 68.566376 54 37 37
4.292757 9.450128 68.408394 54 38 38
4.292757 9.597593 68.408394 54 38 39
4.292757 9.745059 68.408394 54 38 39
4.292757 9.892524 68.408394 52 38 38
4.302671 10.063176 68.566376 51 37 37
4.282889 10.164036 68.251129 51 36 36
4.273066 10.287513 68.094589 51 35 35
4.273066 10.434301 68.094589 52 35 35
2.624023 6.948388 41.815834 48 32 32
2.627724 7.048456 41.874813 47 31 32
2.202195 6.436590 35.093666 42 32 33
4.352936 14.068587 69.367386 40 30 32
4.373373 17.890507 69.693054 34 27 24
4.373373 18.040741 69.693054 33 27 24
4.342789 18.063766 69.205696 32 26 24
2.179928 -6.002992 33.585117 62 46 51
2.155544 -5.864255 33.209442 62 45 51
4.282348 -10.228099 65.976097 62 44 46
4.207547 -9.909704 64.823669 63 44 47
4.359857 -8.096480 67.170235 61 42 47
4.359857 -7.951684 67.170235 61 42 47
4.359857 -7.806888 67.170235 60 41 45
4.359857 -7.662092 67.170235 60 40 44
4.359857 -7.517295 67.170235 61 40 45
4.359857 -7.372499 67.170235 62 40 45
4.359857 -7.227703 67.170235 63 41 45
4.350015 -7.066918 67.018608 64 41 45
4.330464 -6.891336 66.717400 64 41 45
4.330464 -6.747516 66.717400 64 41 44
4.272853 -6.515841 65.829803 65 41 45
4.253988 -6.345794 65.539169 65 42 45
4.253988 -6.204514 65.539169 66 43 46
4.263400 -6.076647 65.684166 67 44 47
4.253988 -5.921953 65.539169 68 45 48
4.244618 -5.767940 65.394806 68 46 49
4.244618 -5.626970 65.394806 68 47 50
4.244618 -5.486001 65.394806 68 47 50
4.244618 -5.345032 65.394806 66 47 50
4.244618 -5.204063 65.394806 65 47 49
4.244618 -5.063094 65.394806 65 46 49
4.216754 -4.889813 64.965523 65 45 49
4.216754 -4.749769 64.965523 65 45 49
4.216754 -4.609725 64.965523 65 44 47
4.216754 -4.469682 64.965523 65 44 46
4.226001 -4.339133 65.107986 66 44 46
4.244618 -4.217278 65.394806 67 44 45
4.235289 -4.067350 65.251083 68 45 46
4.253988 -3.944028 65.539169 69 45 46
4.253988 -3.802747 65.539169 69 45 45
4.253988 -3.661467 65.539169 68 44 44
4.263400 -3.527975 65.684166 68 43 44
4.282348 -3.401432 65.976097 68 42 44
4.216754 -2.509069 64.965523 64 43 43
4.198380 -2.219269 64.682442 64 43 42
4.399673 -1.448960 67.783661 60 38 37
4.450477 -1.022274 68.566376 58 38 37
4.430015 -0.870447 68.251129 56 38 36
4.419855 -0.574873 68.094589 53 37 35
4.430015 -0.429068 68.251129 52 36 36
4.409740 -0.280651 67.938766 52 36 36
4.399673 -0.133892 67.783661 53 37 37
2.741190 0.735925 42.232208 63 40 41
2.721831 0.821124 41.933956 63 41 42
2.710347 0.907673 41.757023 63 41 42
2.680190 1.164611 41.292408 59 38 40
4.330464 4.039001 66.717400 58 40 39
4.340218 4.192242 66.867661 57 40 38
4.330464 4.326642 66.717400 55 40 37
4.301466 4.440526 66.270630 54 39 36
4.419855 6.470999 68.094589 55 39 40
4.419855 6.617788 68.094589 54 39 39
4.471129 6.843052 68.884552 53 39 38
4.481527 7.007803 69.044746 52 38 38
4.419855 7.058155 68.094589 51 38 37
4.369743 7.123255 67.322548 50 37 36
4.359857 7.251935 67.170235 51 36 37
4.350015 7.380035 67.018608 51 36 38
4.340218 7.507557 66.867661 52 36 39
4.340218 7.651701 66.867661 54 37 39
4.320755 7.760887 66.567810 56 37 40
4.263400 7.799459 65.684166 57 37 39
4.272853 7.958660 65.829803 57 38 39
4.272853 8.100567 65.829803 57 38 39
4.244618 8.188007 65.394806 56 38 39
4.330464 8.497428 66.717400 55 37 39
4.450477 9.767565 68.566376 54 38 39
4.450477 9.915371 68.566376 53 38 38
4.460779 10.086471 68.725098 51 37 37
4.440223 10.187455 68.408394 50 36 35
4.430015 10.311162 68.251129 50 35 35
4.419855 10.434301 68.094589 51 35 34
4.502469 14.068587 69.367386 41 30 32
4.502469 17.806906 69.367386 33 27 23
4.502469 17.956438 69.367386 32 26 24
4.471129 17.979942 68.884552 31 25 24
2.515740 11.369916 38.758801 28 24 22
2.254877 -6.009790 33.623150 61 46 51
4.504653 -8.241278 67.170235 61 43 47
4.494484 -8.078204 67.018608 61 42 47
4.494484 -7.933735 67.018608 60 41 46
4.484362 -7.771722 66.867661 60 40 45
4.484362 -7.627578 66.867661 60 40 44
4.484362 -7.483434 66.867661 60 39 44
4.494484 -7.355857 67.018608 61 40 45
4.484362 -7.195145 66.867661 62 40 46
4.484362 -7.051001 66.867661 63 40 46
4.454266 -6.860502 66.418884 63 40 45
4.444323 -6.702332 66.270630 64 41 45
4.395268 -6.487074 65.539169 65 41 45
4.385587 -6.331816 65.394806 65 42 45
4.395268 -6.204514 65.539169 66 43 46
4.395268 -6.063233 65.539169 67 44 47
4.385587 -5.908909 65.394806 68 45 49
4.385587 -5.767940 65.394806 68 46 49
4.385587 -5.626970 65.394806 68 47 50
4.395268 -5.498112 65.539169 68 47 50
4.395268 -5.356831 65.539169 66 47 49
4.404993 -5.227090 65.684166 65 46 49
4.395268 -5.074271 65.539169 64 45 49
4.366352 -4.900536 65.107986 65 44 48
4.356798 -4.749769 64.965523 65 44 48
4.366352 -4.619834 65.107986 65 44 47
4.356798 -4.469682 64.965523 66 44 47
4.366352 -4.339133 65.107986 67 45 46
4.375948 -4.208010 65.251083 68 45 46
4.356798 -4.049551 64.965523 69 45 47
4.356798 -3.909507 64.965523 70 45 47
4.347285 -3.761233 64.823669 70 45 46
4.337814 -2.498136 64.682442 64 41 42
4.328384 -2.353575 64.541832 64 42 42
4.566644 -0.428084 68.094589 52 37 36
4.556194 -0.280651 67.938766 52 37 37
2.844367 0.739079 42.413204 63 41 41
2.820194 0.823450 42.052750 63 41 42
2.800361 0.907673 41.757023 62 41 42
4.566644 2.507696 68.094589 58 37 42
4.484362 4.048098 66.867661 57 39 38
4.494484 4.201705 67.018608 57 40 37
4.484362 4.336386 66.867661 56 40 36
4.587688 6.500819 68.408394 56 40 39
4.598283 6.663639 68.566376 54 39 38
4.641158 6.874955 69.205696 53 38 38
4.652001 7.040550 69.367386 52 38 38
4.587688 7.090681 68.408394 51 37 37
4.525129 7.139444 67.475548 51 37 36
4.514868 7.268380 67.322548 51 36 36
4.525129 7.575808 67.475548 53 36 39
4.525129 7.721262 67.475548 54 37 40
4.504653 7.831121 67.170235 56 37 40
4.454266 7.886701 66.418884 56 37 39
4.504653 8.120714 67.170235 56 37 39
4.484362 8.228278 66.867661 56 37 39
4.464252 8.334878 66.567810 55 37 39
4.525129 8.593989 67.475548 55 37 39
4.535437 8.759352 67.629250 55 37 39
4.556194 8.945893 67.938766 55 37 38
4.598283 10.063176 68.566376 51 37 36
4.587688 10.187455 68.408394 49 35 34
4.577142 10.311162 68.251129 49 35 34
4.556194 10.410424 67.938766 50 35 34
4.577142 10.899668 68.251129 51 34 34
4.652001 17.507839 69.367386 34 26 25
4.641158 17.616213 69.205696 33 26 24
4.619621 17.682959 68.884552 32 26 24
4.608927 17.790174 68.725098 31 26 24
4.587688 17.855658 68.408394 31 25 25
3.016752 12.420236 44.983700 29 24 24
2.332641 -6.023433 33.699482 61 45 50
4.649449 -8.241278 67.170235 61 43 47
4.638954 -8.078204 67.018608 60 42 46
4.628506 -7.915866 66.867661 59 40 45
4.618105 -7.754257 66.717400 58 39 44
4.618105 -7.610437 66.717400 58 38 43
4.618105 -7.466617 66.717400 59 38 44
4.618105 -7.322797 66.717400 60 38 45
4.607750 -7.162880 66.567810 61 39 46
4.618105 -7.035156 66.717400 62 40 46
4.587180 -6.845189 66.270630 63 40 46
4.556666 -6.657748 65.829803 64 40 46
4.526556 -6.472785 65.394806 65 41 45
4.516608 -6.317900 65.251083 65 42 45
4.536549 -6.204514 65.539169 66 43 46
4.536549 -6.063233 65.539169 67 44 47
4.536549 -5.921953 65.539169 68 45 48
4.536549 -5.780672 65.539169 69 46 49
4.536549 -5.639392 65.539169 69 47 49
4.546586 -5.510275 65.684166 68 47 49
4.576963 -5.404553 66.123032 67 47 48
4.566792 -5.250321 65.976097 65 45 47
4.546586 -5.085497 65.684166 64 44 47
4.526556 -4.922124 65.394806 64 43 46
4.516608 -4.489329 65.251083 66 43 46
4.516608 -4.348670 65.251083 67 45 47
4.526556 -4.217278 65.394806 68 45 47
4.467515 -3.744879 64.541832 70 44 47
4.477248 -2.637570 64.682442 63 40 41
4.467515 -2.492706 64.541832 63 40 41
4.457824 -2.348470 64.401825 63 41 41
4.649449 -1.435847 67.170235 58 37 38
2.919115 0.825789 42.172218 62 41 42
4.746089 2.377264 68.566376 58 38 42
4.735154 2.519252 68.408394 59 38 42
4.638954 4.201705 67.018608 58 39 37
4.638954 4.346175 67.018608 58 40 38
4.768113 6.546068 68.884552 57 40 38
4.779202 6.710129 69.044746 56 39 38
4.812779 7.057039 69.529839 53 37 37
4.757076 7.123508 68.725098 52 37 37
4.681222 7.155707 67.629250 52 36 36
4.681222 7.301493 67.629250 52 36 37
4.691910 7.464282 67.783661 52 36 37
4.691910 7.610401 67.783661 53 36 38
4.702647 7.774269 67.938766 54 36 39
4.659992 7.848878 67.322548 55 37 39
4.628506 7.939990 66.867661 55 37 39
4.681222 8.176208 67.629250 55 37 39
4.649449 8.265511 67.170235 55 37 39
4.649449 8.410307 67.170235 55 37 39
4.681222 8.613566 67.629250 55 38 39
4.691910 8.779350 67.783661 56 38 40
4.702647 8.945893 67.938766 56 38 40
4.702647 9.092346 67.938766 55 37 39
4.735154 10.039989 68.408394 50 36 35
4.724268 10.164036 68.251129 49 35 33
4.713433 10.287513 68.094589 49 34 33
4.702647 10.410424 67.938766 49 34 33
4.670583 10.484899 67.475548 50 34 34
4.670583 10.630353 67.475548 51 34 35
4.724268 10.899668 68.251129 51 34 35
4.702647 10.996237 67.938766 50 35 34
4.779202 17.426409 69.044746 34 26 26
4.757076 17.493879 68.725098 33 26 26
4.746089 17.601282 68.566376 32 26 26
4.735154 17.708193 68.408394 32 26 26
3.161626 12.315931 45.675758 29 22 23
3.171384 12.551475 45.816730 29 23 24
2.464019 -6.319354 34.522373 61 45 48
2.430111 -6.158996 34.047295 61 45 48
2.413504 -6.044014 33.814625 61 44 48
2.416256 -5.977930 33.853184 61 44 48
2.416256 -5.904954 33.853184 61 43 48
2.389015 -5.766228 33.471523 61 43 48
4.761925 -8.329538 66.717400 61 44 47
4.783423 -8.222673 67.018608 61 44 47
4.772650 -8.060010 66.867661 60 42 45
4.751248 -7.880369 66.567810 59 40 43
4.751248 -7.736871 66.567810 57 38 42
4.751248 -7.593373 66.567810 57 37 41
4.751248 -7.449876 66.567810 58 37 42
4.751248 -7.306378 66.567810 60 38 44
4.740619 -7.146856 66.418884 61 39 46
4.761925 -7.035156 66.717400 62 40 46
4.730037 -6.845189 66.270630 64 40 46
4.698574 -6.657748 65.829803 64 41 46
4.667526 -6.472785 65.394806 65 41 46
4.657268 -6.317900 65.251083 65 42 46
4.677829 -6.204514 65.539169 66 43 46
4.688179 -6.076647 65.684166 68 44 47
4.677829 -5.921953 65.539169 69 45 48
4.688179 -5.793461 65.684166 69 46 48
4.698574 -5.664400 65.829803 69 47 49
4.709015 -5.534766 65.976097 68 47 49
4.740619 -5.428735 66.418884 67 46 48
4.730037 -5.273760 66.270630 65 45 46
4.709015 -5.108099 65.976097 64 43 45
4.667526 -4.358248 65.394806 66 44 46
4.606645 -3.744879 64.541832 69 44 47
4.626761 -2.643329 64.823669 63 39 40
4.616681 -2.498136 64.682442 63 39 42
4.616681 -2.358703 64.682442 63 40 42
4.616681 -2.219269 64.682442 62 40 42
4.761925 -1.426167 66.717400 58 37 40
4.838029 -0.280010 67.783661 56 37 38
4.827008 -0.133587 67.629250 57 37 38
4.893895 2.377264 68.566376 59 39 42
4.882619 2.519252 68.408394 59 39 42
4.928039 6.561292 69.044746 57 40 38
4.962662 6.757273 69.529839 56 39 37
4.916605 7.140036 68.884552 53 37 37
4.827008 7.155707 67.629250 53 37 37
4.827008 7.301493 67.629250 53 37 38
4.838029 7.464282 67.783661 53 37 38
