ply
format ascii 1.0
element vertex 1264
property float x
property float y
property float z
property uchar red
property uchar green
property uchar blue
end_header
2.330623 0.185991 41.407589 30 26 25
2.304906 0.272214 40.950680 31 27 26
4.492088 5.003644 79.809792 37 31 32
4.480045 5.161811 79.595825 36 31 32
4.492088 5.347730 79.809792 36 31 32
4.528609 5.564649 80.458649 36 30 31
4.540915 5.753684 80.677292 36 31 32
4.565729 5.959988 81.118149 37 32 33
4.553288 6.118135 80.897118 38 32 34
4.565729 6.309714 81.118149 38 33 35
4.603462 6.538169 81.788544 38 34 35
4.680831 6.827326 83.163147 37 33 35
4.641824 6.948210 82.470116 35 32 33
4.616179 7.086617 82.014481 34 31 31
4.628966 7.283533 82.241669 32 29 29
4.590815 7.399328 81.563850 31 29 29
4.603462 7.596021 81.788544 32 30 30
4.616179 7.793799 82.014481 33 29 30
4.603462 7.948637 81.788544 33 28 30
4.456151 8.376948 79.171310 36 33 35
4.603462 9.711723 81.788544 36 34 35
4.628966 9.942813 82.241669 36 35 34
4.641824 10.148210 82.470116 36 34 33
4.628966 10.297383 82.241669 35 34 32
4.603462 10.416957 81.788544 35 33 32
4.590815 10.564163 81.563850 33 32 31
4.540915 10.623248 80.677292 31 30 30
4.516369 10.738798 80.241196 28 28 28
4.516369 10.911772 80.241196 26 26 26
4.590815 11.267460 81.563850 24 24 24
4.516369 11.257717 80.241196 23 23 21
4.444300 11.248286 78.960747 22 21 20
2.419884 -5.615962 41.407589 25 23 21
2.399802 -5.480836 41.063957 24 23 21
4.530174 -9.343719 77.517601 28 23 23
4.639189 -2.894772 79.383003 29 27 27
4.602272 -2.022930 78.751305 30 27 27
4.590097 -1.678954 78.542969 31 26 26
4.494966 -1.478354 76.915138 31 26 26
4.506640 -1.315960 77.114914 30 26 26
4.460300 -1.137904 76.321960 30 26 27
4.403697 -0.961027 75.353409 28 25 26
2.423264 0.186251 41.465424 30 26 25
2.393182 0.272214 40.950680 30 26 25
2.383320 0.359005 40.781925 31 26 25
4.753580 5.976316 81.340393 36 31 32
4.740592 6.134851 81.118149 36 32 33
4.753580 6.327001 81.340393 36 32 34
4.792974 6.556231 82.014481 36 33 34
4.873755 6.846504 83.396751 35 32 33
4.819602 6.948210 82.470116 33 31 32
4.806251 7.106248 82.241669 31 29 29
4.806251 7.283533 82.241669 29 27 27
4.766639 7.399328 81.563850 29 28 28
4.779770 7.596021 81.788544 30 29 29
4.792974 7.793799 82.014481 32 28 29
4.779770 7.948637 81.788544 31 27 29
4.833027 9.819932 82.699837 36 34 35
4.846527 10.026133 82.930847 37 35 34
4.846527 10.204904 82.930847 36 35 33
4.819602 10.325988 82.470116 35 34 32
4.806251 10.474669 82.241669 34 33 32
4.792974 10.622529 82.014481 34 33 32
4.740592 10.681299 81.118149 32 31 31
4.689342 10.738798 80.241196 30 29 29
4.714828 11.318901 80.677292 25 24 23
2.512649 -5.623805 41.465424 25 23 22
4.823208 -3.074114 79.595825 28 26 26
4.784725 -2.879374 78.960747 29 27 27
4.772034 -2.701975 78.751305 29 27 27
4.759409 -2.017578 78.542969 30 27 26
4.746851 -1.674524 78.335732 31 27 26
4.672874 -1.482194 77.114914 31 26 26
4.660769 -1.312551 76.915138 30 26 26
4.624824 -1.137904 76.321960 30 26 27
2.512649 0.186251 41.465424 29 26 25
2.484885 0.272590 41.007240 30 26 25
2.478040 0.359994 40.894272 30 26 25
4.928922 6.151659 81.340393 35 31 32
4.942463 6.344383 81.563850 35 31 32
5.067765 6.865790 83.631668 33 31 32
5.011300 6.967564 82.699837 32 30 30
4.942463 7.399328 81.563850 29 27 27
4.942463 7.575152 81.563850 30 28 29
4.942463 7.750977 81.563850 31 28 29
4.875492 7.819392 80.458649 31 27 29
5.154890 10.101305 85.069466 36 34 35
5.110956 10.197033 84.344437 36 35 34
5.067765 10.291142 83.631668 36 35 33
5.025298 10.383675 82.930847 35 34 32
5.025298 10.562446 82.930847 34 33 32
5.011300 10.711297 82.699837 34 33 33
4.956079 10.769574 81.788544 32 32 32
4.875492 12.155435 80.458649 22 21 19
4.942463 12.849877 81.563850 20 19 17
4.478501 -14.602510 71.368370 24 22 22
4.532985 -14.468721 72.236603 22 20 20
5.262872 -8.120464 83.867912 26 25 24
5.218646 -7.872954 83.163147 26 25 24
5.204069 -7.672192 82.930847 26 25 24
2.743824 -2.254263 43.724953 29 25 25
4.968151 -3.057719 79.171310 28 26 25
4.928721 -2.864139 78.542969 29 27 25
4.839108 -1.482194 77.114914 30 26 26
4.789349 -1.137904 76.321960 29 26 26
4.704689 -0.956173 74.972832 28 25 26
2.594786 0.185732 41.349918 30 26 25
2.569733 0.272214 40.950680 29 26 25
2.566194 0.359994 40.894272 30 27 25
5.262872 6.885185 83.867912 32 30 30
5.132388 7.419712 81.788544 29 26 27
5.104265 7.554399 81.340393 30 27 28
5.008217 7.584289 79.809792 30 27 29
5.353611 10.314240 85.313911 35 34 34
5.307854 10.408421 84.584732 35 34 33
5.262872 10.501004 83.867912 35 34 32
5.262872 10.681795 83.867912 34 33 32
5.218646 10.771304 83.163147 34 33 33
5.146565 10.799324 82.014481 33 33 33
5.104265 11.411933 81.340393 30 29 28
5.048934 12.155435 80.458649 23 22 20
5.840303 15.063810 93.069725 19 18 17
4.632348 -14.602510 71.368370 24 22 21
4.599181 -14.345214 70.857384 23 21 21
4.610183 -14.226422 71.026894 22 20 20
4.599181 -13.886980 70.857384 22 21 19
4.588230 -13.701534 70.688675 23 21 19
4.566485 -13.484940 70.353653 23 22 20
5.474593 -8.166604 84.344437 26 26 24
5.428329 -7.917308 83.631668 26 25 24
5.397918 -7.693682 83.163147 26 25 25
5.125151 -3.219799 78.960747 28 26 24
5.138818 -3.057719 79.171310 28 26 24
5.084582 -2.856582 78.335732 28 26 24
5.005342 -1.482194 77.114914 30 26 26
5.018377 -1.319387 77.315735 29 26 26
4.966641 -1.140836 76.518669 28 25 25
2.669054 0.184703 41.120834 30 26 24
2.654348 0.271839 40.894272 29 26 24
2.654348 0.359994 40.894272 29 27 25
5.098033 7.633215 78.542969 31 26 29
5.459084 10.530752 84.105499 34 34 32
5.428329 10.651706 83.631668 34 33 32
5.382840 10.741217 82.930847 33 33 33
5.294112 10.739987 81.563850 33 32 34
5.279607 11.411933 81.340393 32 31 30
5.180260 11.369235 79.809792 31 30 29
5.180260 12.057407 79.809792 24 24 22
6.040930 15.063810 93.069725 19 18 17
4.774716 -14.567492 71.197220 23 21 20
4.729351 -14.277065 70.520767 22 21 20
4.751925 -13.734235 70.857384 23 21 20
4.729351 -13.516971 70.520767 24 22 20
5.295363 -3.219799 78.960747 28 26 24
5.309484 -3.057719 79.171310 28 26 24
5.239623 -2.849065 78.129585 28 26 23
2.746285 0.183939 40.950680 29 26 24
2.734968 0.271093 40.781925 29 26 24
2.738730 0.359499 40.838024 29 27 25
5.253448 7.613075 78.335732 31 26 28
5.212190 7.720826 77.720528 32 27 28
5.253448 7.950806 78.335732 33 28 29
5.253448 8.119672 78.335732 35 30 31
5.225871 8.245028 77.924522 36 31 33
5.239623 8.435146 78.129585 37 31 33
5.577189 10.592032 83.163147 33 33 31
5.530713 10.681543 82.470116 33 33 33
5.410480 10.623248 80.677292 33 32 34
5.425222 11.349743 80.897118 33 32 31
5.352303 11.369235 79.809792 33 32 32
5.295363 11.418499 78.960747 32 32 31
5.309484 11.619615 79.171310 31 31 29
5.309484 11.790281 79.171310 28 29 27
5.323681 11.992929 79.383003 26 26 24
5.309484 12.131615 79.171310 24 24 22
4.916403 -14.532642 71.026894 22 21 20
4.881370 -14.277065 70.520767 22 20 20
5.422313 -3.194313 78.335732 28 26 23
5.465576 -3.049587 78.960747 28 26 23
5.393849 -2.841587 77.924522 28 26 22
2.604635 -1.047712 37.628952 26 24 22
5.539236 7.432225 80.024910 31 25 27
5.451078 7.483702 78.751305 32 26 27
5.422313 7.613075 78.335732 32 27 27
5.393849 7.741090 77.924522 33 27 28
5.436658 7.971840 78.542969 33 28 29
5.436658 8.141152 78.542969 34 29 30
5.408044 8.266725 78.129585 35 30 32
5.408044 8.435146 78.129585 37 31 33
5.740382 10.562446 82.930847 33 32 31
5.692677 10.651955 82.241669 32 32 32
5.554207 10.565825 80.241196 33 32 33
5.584393 11.318901 80.677292 33 32 32
5.524346 11.369235 79.809792 33 32 32
5.480151 11.448948 79.171310 33 32 32
5.465576 11.588712 78.960747 32 32 30
5.480151 11.790281 79.171310 30 30 29
5.494804 11.992929 79.383003 28 28 26
5.480151 12.131615 79.171310 26 26 24
6.152864 14.578909 88.889946 18 19 17
5.081671 -14.567492 71.197220 23 20 20
5.576465 -3.017486 78.129585 28 26 23
5.532785 -2.826748 77.517601 28 25 22
5.461486 -2.625372 76.518669 27 25 22
2.685750 -0.966596 37.628952 27 24 23
2.682350 -0.884360 37.581318 27 24 24
5.727180 7.452312 80.241196 31 26 28
5.620840 7.483702 78.751305 32 26 27
5.591178 7.613075 78.335732 32 27 27
5.547269 7.720826 77.720528 33 27 28
5.605970 7.971840 78.542969 33 28 28
5.620840 8.162746 78.751305 34 29 30
5.576465 8.266725 78.129585 35 29 31
5.576465 8.435146 78.129585 36 30 32
5.635789 8.695094 78.960747 37 31 33
5.681117 8.936610 79.595825 37 32 34
5.681117 9.108191 79.595825 37 33 34
6.071795 10.101305 85.069466 37 34 34
5.742701 11.288226 80.458649 33 32 31
5.681117 11.338755 79.595825 33 32 31
5.650818 11.448948 79.171310 33 32 31
5.620840 11.557972 78.751305 32 32 31
5.650818 11.790281 79.171310 31 31 30
5.665927 11.992929 79.383003 29 29 28
5.665927 12.164052 79.383003 27 27 26
5.853748 12.920872 82.014481 24 23 21
5.902665 13.207118 82.699837 22 22 19
6.142193 14.670595 86.055771 17 16 15
5.699887 -2.993850 77.517601 28 25 23
5.670277 -2.812064 77.114914 28 25 22
2.759869 -0.883242 37.533810 27 24 24
5.948383 7.513230 80.897118 31 27 28
5.806002 7.503605 78.960747 31 27 28
5.760044 7.613075 78.335732 32 27 27
5.685043 7.680613 77.315735 33 27 28
5.775282 7.971840 78.542969 33 27 28
5.806002 8.184456 78.960747 34 28 29
5.760044 8.288537 78.335732 34 28 30
5.744886 8.435146 78.129585 35 29 31
5.821485 8.718281 79.171310 36 30 32
5.837050 11.308437 79.383003 34 31 31
5.821485 11.448948 79.171310 33 31 31
5.806002 11.588712 78.960747 33 31 32
5.806002 11.758924 78.960747 31 31 31
5.852699 12.025082 79.595825 30 30 30
5.868432 12.229450 79.809792 29 29 28
6.030543 12.744076 82.014481 27 27 26
6.030543 12.920872 82.014481 25 25 23
6.064046 13.170432 82.470116 23 23 21
6.030543 13.274463 82.014481 21 21 19
6.132182 13.677965 83.396751 20 20 18
6.237305 14.095302 84.826408 18 18 17
6.291230 14.586039 85.559776 18 17 16
6.201866 14.560669 84.344437 18 17 16
3.595291 -7.466631 47.502789 23 22 22
5.806348 -2.797531 76.716385 28 25 23
6.173233 6.168559 81.563850 34 30 30
5.976214 7.503605 78.960747 31 27 28
5.897787 7.573112 77.924522 32 27 28
6.008173 11.479560 79.383003 34 32 32
5.992151 11.619615 79.171310 33 32 32
6.008173 11.821806 79.383003 33 32 33
6.089584 12.155435 80.458649 32 31 32
6.122770 12.396064 80.897118 31 30 30
6.241824 12.814877 82.470116 29 29 28
6.224534 12.956663 82.241669 27 27 26
6.241824 13.170432 82.470116 25 25 23
6.224534 13.311234 82.241669 23 23 21
6.347618 13.936032 83.867912 20 19 18
6.383684 14.197033 84.344437 19 19 17
6.401871 14.419816 84.584732 19 18 17
6.311957 14.397066 83.396751 18 18 16
6.311957 14.576841 83.396751 19 17 16
4.263942 -3.296392 54.777199 29 26 26
4.240471 -3.160816 54.475674 29 26 26
4.209575 -3.021210 54.078766 29 27 25
4.603698 -1.901682 59.141918 29 25 24
6.195862 5.333393 79.595825 31 27 27
6.366547 5.656627 81.788544 32 28 28
6.331662 5.800974 81.340393 32 29 29
6.331662 5.976316 81.340393 33 30 30
6.280045 6.101510 80.677292 33 30 30
6.179296 6.174747 79.383003 32 30 29
3.223231 4.649031 41.407589 34 30 31
3.196482 4.698970 41.063957 35 31 32
6.229263 11.744893 80.024910 34 33 33
6.366547 12.356351 81.788544 33 32 34
6.366547 12.532660 81.788544 32 31 32
6.437484 12.850573 82.699837 31 30 30
6.401819 12.956663 82.241669 29 29 29
6.437484 13.207118 82.699837 27 26 26
6.401819 13.311234 82.241669 25 24 23
6.384134 13.451259 82.014481 23 22 21
6.455465 13.780322 82.930847 22 21 20
6.491732 14.037516 83.396751 21 20 19
6.528409 14.297614 83.867912 20 19 17
6.419602 14.237099 82.470116 19 19 16
6.419602 14.414876 82.470116 20 18 16
4.365913 -3.166626 54.575813 29 26 25
4.334045 -3.026724 54.177448 29 27 25
6.367444 4.647066 79.595825 30 27 26
6.283219 4.754909 78.542969 30 27 26
6.436468 5.217765 80.458649 30 27 27
6.367444 5.333393 79.595825 31 27 27
6.542856 5.656627 81.788544 32 29 29
6.507004 5.800974 81.340393 32 29 29
6.489226 5.959988 81.118149 32 29 30
6.453958 6.101510 80.677292 32 29 29
3.317118 4.655524 41.465424 33 29 30
3.294115 4.712005 41.177868 33 30 31
6.560930 12.390485 82.014481 34 33 34
6.542856 12.532660 81.788544 33 33 34
6.597380 12.814877 82.470116 31 31 32
6.579104 12.956663 82.241669 29 29 30
6.615757 13.207118 82.699837 28 27 27
6.579104 13.311234 82.241669 26 26 25
6.579104 13.488520 82.241669 25 24 23
6.615757 13.741938 82.699837 24 23 22
6.671507 14.037516 83.396751 23 22 21
6.690300 14.257339 83.631668 21 21 19
6.615757 14.276756 82.699837 21 20 18
6.634236 14.495406 82.930847 21 19 18
6.507004 15.795494 81.340393 17 14 12
6.805320 16.886406 85.069466 16 12 11
6.037269 -10.125358 73.488220 25 23 23
6.253992 -2.776012 76.126259 30 24 24
6.504151 4.622281 79.171310 30 27 26
6.435506 4.742362 78.335732 30 27 26
6.574276 5.189637 80.024910 31 27 27
6.521542 5.319132 79.383003 31 28 28
6.700705 5.641087 81.563850 31 29 28
6.682347 5.800974 81.340393 32 29 29
6.682347 5.976316 81.340393 32 29 29
6.627872 6.101510 80.677292 32 29 29
3.998454 4.520255 48.670887 31 29 28
4.005019 4.632768 48.750809 30 29 28
3.991910 4.722349 48.591232 30 29 28
3.959507 4.787915 48.196823 31 29 28
3.425641 4.591791 41.698376 33 29 29
3.406504 4.655524 41.465424 33 29 30
6.737726 12.390485 82.014481 33 33 34
6.719164 12.532660 81.788544 33 33 34
6.756390 12.779378 82.241669 32 32 33
6.737726 12.920872 82.014481 30 30 30
6.775157 13.170432 82.470116 28 28 27
6.756390 13.311234 82.241669 27 27 26
6.756390 13.488520 82.241669 26 26 25
6.794030 13.741938 82.699837 26 25 25
6.851283 14.037516 83.396751 25 25 23
6.870582 14.257339 83.631668 24 24 22
6.794030 14.276756 82.699837 23 23 21
6.813007 14.495406 82.930847 22 21 20
6.775157 14.592654 82.470116 22 20 19
6.968733 16.106730 84.826408 17 16 14
6.813007 15.925574 82.930847 17 15 13
6.682347 15.795494 81.340393 17 14 12
6.929138 16.742487 84.344437 15 12 11
6.851283 16.734144 83.396751 15 11 11
6.304929 -13.689281 74.783989 20 19 17
6.320850 -13.562234 74.972832 20 19 17
6.304929 -13.366863 74.783989 22 20 18
7.050864 -13.506041 83.631668 24 24 20
6.991778 -13.214091 82.930847 24 24 21
6.150016 -10.365220 72.946541 24 24 22
6.180387 -10.258382 73.306770 24 24 23
6.165164 -10.075480 73.126213 24 25 24
6.150016 -9.893476 72.946541 25 25 24
6.639408 4.597760 78.751305 30 27 25
6.604371 4.742362 78.335732 30 27 25
6.710608 5.161811 79.595825 31 27 27
6.692665 5.319132 79.383003 31 28 27
6.820318 5.594974 80.897118 31 29 28
6.857689 5.800974 81.340393 31 29 28
6.857689 5.976316 81.340393 32 30 28
4.414562 4.185812 52.361980 32 29 28
4.083290 4.498133 48.432693 31 29 27
4.076640 4.595041 48.353813 30 29 27
4.076640 4.699276 48.353813 30 29 27
4.050253 4.772420 48.040844 31 29 28
3.520473 4.598249 41.757023 33 29 29
3.510598 4.675113 41.639893 34 29 30
3.520473 5.048320 41.757023 34 32 32
6.783351 11.808552 80.458649 33 32 33
6.914521 12.390485 82.014481 33 33 34
6.876529 12.498229 81.563850 32 33 34
6.876529 12.674053 81.563850 32 33 33
6.895473 12.885277 81.788544 30 30 30
6.914521 13.097667 82.014481 28 28 28
6.933675 13.311234 82.241669 27 27 27
6.933675 13.488520 82.241669 28 27 27
6.972302 13.741938 82.699837 28 27 27
6.991778 13.959093 82.930847 27 27 26
7.011363 14.177466 83.163147 26 26 25
6.952935 14.414876 82.470116 24 23 22
7.011363 15.790912 83.163147 17 16 14
6.820318 15.709415 80.897118 16 14 12
7.011363 16.507999 83.163147 16 13 12
6.531951 -13.991462 75.545143 19 18 18
6.449891 -13.654885 74.596085 20 19 18
6.449891 -13.494081 74.596085 21 20 18
6.433726 -13.299861 74.409126 21 20 19
3.646387 -7.083302 42.172218 25 24 20
3.615573 -6.933302 41.815834 25 24 20
7.170549 -13.214091 82.930847 24 24 21
6.322800 -10.548386 73.126213 25 25 22
6.322800 -10.390750 73.126213 25 25 23
6.354101 -10.283773 73.488220 24 25 23
6.354101 -10.125358 73.488220 25 26 24
6.307264 -9.893476 72.946541 26 26 24
6.845484 -1.692385 79.171310 27 24 24
6.827278 4.609988 78.960747 29 27 24
6.773237 4.742362 78.335732 29 27 24
6.919290 5.189637 80.024910 30 27 26
6.845484 5.304948 79.171310 31 28 27
7.013816 5.610261 81.118149 31 28 27
7.052353 5.816911 81.563850 31 29 27
7.033032 5.976316 81.340393 31 29 28
4.174076 4.587570 48.275192 29 28 26
4.167300 4.684019 48.196823 30 28 26
6.956793 11.808552 80.458649 32 31 31
7.110960 12.247522 82.241669 33 32 32
7.091317 12.390485 82.014481 33 33 33
7.052353 12.498229 81.563850 32 33 33
7.013816 12.604796 81.118149 32 33 33
7.013816 12.779660 81.118149 31 31 31
7.033032 12.990015 81.340393 29 30 29
7.071781 13.237894 81.788544 28 29 28
7.091317 13.451259 82.014481 29 28 28
7.130713 13.703765 82.470116 30 28 28
7.130713 13.881543 82.470116 29 28 28
7.150576 14.098483 82.699837 28 28 27
7.091317 14.158441 82.014481 27 26 26
7.110960 14.374946 82.241669 26 25 24
7.091317 14.512032 82.014481 24 23 23
7.091317 14.688828 82.014481 23 21 22
7.071781 14.824671 81.788544 22 20 21
7.052353 14.959767 81.563850 21 19 19
7.052353 15.135592 81.563850 20 19 17
7.052353 15.663064 81.563850 16 16 13
6.919290 15.540042 80.024910 15 14 12
6.900690 15.670310 79.809792 15 14 12
7.130713 16.548210 82.470116 17 14 13
7.071781 16.587755 81.788544 16 13 12
6.975698 16.536291 80.677292 14 12 10
3.764030 -7.225529 42.473881 24 23 21
3.742613 -7.093378 42.232208 24 24 20
3.710940 -6.943081 41.874813 24 24 20
6.496436 -10.732455 73.306770 25 25 22
6.480435 -10.548386 73.126213 25 25 22
6.480435 -10.390750 73.126213 25 25 23
6.512516 -10.283773 73.488220 25 26 23
6.512516 -10.125358 73.488220 25 26 24
7.034911 -1.868034 79.383003 27 25 24
7.053771 -1.701460 79.595825 28 25 24
7.072733 -1.533991 79.809792 28 25 25
7.091797 -1.365619 80.024910 29 25 25
7.016151 5.304948 79.171310 30 27 26
7.130235 11.808552 80.458649 30 29 29
7.288246 12.247522 82.241669 32 31 31
7.268112 12.390485 82.014481 33 32 32
7.208375 12.463987 81.340393 33 33 32
7.149611 12.536292 80.677292 33 33 32
7.130235 12.675760 80.458649 32 32 31
7.169092 12.919225 80.897118 31 31 31
7.188679 13.129387 81.118149 30 30 30
7.208375 13.340700 81.340393 30 30 29
7.268112 13.628054 82.014481 31 29 29
7.288246 13.843090 82.241669 31 29 29
7.308491 14.059320 82.470116 30 29 28
7.268112 14.158441 82.014481 29 27 27
7.268112 14.335237 82.014481 27 26 25
7.248090 14.472054 81.788544 25 24 24
7.248090 14.648362 81.788544 24 23 23
7.228178 14.783943 81.563850 23 21 22
7.208375 14.918782 81.340393 22 21 21
7.228178 15.135592 81.563850 21 20 19
7.149611 15.492814 80.677292 16 16 14
7.034911 15.415389 79.383003 15 15 13
7.072733 15.842354 79.809792 16 15 14
7.072733 16.186440 79.809792 16 14 12
3.872208 -7.348627 42.656956 23 23 21
3.861113 -7.235880 42.534733 23 23 21
3.833651 -7.093378 42.232208 23 23 20
3.801208 -6.943081 41.874813 24 23 20
3.785192 -6.823939 41.698376 24 24 20
6.654461 -10.732455 73.306770 25 25 21
6.638071 -10.548386 73.126213 25 25 22
6.621761 -10.365220 72.946541 25 25 22
6.963971 -2.797531 76.716385 27 26 24
7.225353 -2.044623 79.595825 26 26 24
7.225353 -1.873042 79.595825 26 25 23
7.323524 -1.724578 80.677292 28 25 24
7.363543 -1.559138 81.118149 29 25 25
7.343479 -1.380503 80.897118 29 25 25
7.323524 -1.202838 80.677292 29 25 25
7.206034 5.319132 79.383003 30 27 26
7.343479 11.872903 80.897118 30 29 28
7.465531 12.424808 82.241669 33 32 31
7.404002 12.498229 81.563850 33 32 31
7.343479 12.570451 80.897118 33 32 31
7.303677 12.675760 80.458649 32 32 31
7.323524 12.884118 80.677292 32 32 31
7.343479 13.093612 80.897118 31 31 30
7.363543 13.304250 81.118149 31 30 30
7.444908 13.628054 82.014481 31 29 29
7.465531 13.843090 82.241669 31 29 29
7.486269 14.059320 82.470116 31 28 29
7.444908 14.158441 82.014481 30 27 28
7.444908 14.335237 82.014481 29 27 27
7.424398 14.472054 81.788544 27 26 26
7.383717 14.568097 81.340393 25 24 24
7.383717 14.743440 81.340393 24 23 23
7.404002 14.959767 81.563850 23 22 22
7.444908 15.219214 82.014481 22 21 20
7.363543 15.577474 81.118149 17 17 15
7.186818 15.374281 79.171310 16 16 14
7.186818 16.056948 79.171310 16 14 11
3.952803 -7.235880 42.534733 22 22 20
3.810852 -6.534039 41.007240 25 24 21
3.784714 -6.401433 40.725983 26 23 22
7.318453 -7.625052 78.751305 29 24 25
7.318453 -7.455290 78.751305 29 25 25
7.416819 -1.878077 79.809792 28 25 25
7.642816 -1.758018 82.241669 28 25 25
7.621704 -1.576366 82.014481 29 25 25
7.600707 -1.395715 81.788544 29 25 25
7.579826 -1.216056 81.563850 29 25 25
7.664046 12.459321 82.470116 33 31 31
7.621704 12.567281 82.014481 32 30 30
7.579826 12.674053 81.563850 32 30 30
7.559059 12.814672 81.340393 32 31 31
7.579826 13.025702 81.563850 32 30 31
7.579826 13.201526 81.563850 31 30 30
7.600707 13.414203 81.788544 31 29 29
7.664046 13.703765 82.470116 31 29 29
7.664046 13.881543 82.470116 31 29 29
7.664046 14.059320 82.470116 31 28 29
7.664046 14.237099 82.470116 30 27 28
7.642816 14.374946 82.241669 29 27 27
7.621704 14.512032 82.014481 28 27 27
7.579826 14.608119 81.563850 27 26 27
7.559059 14.743440 81.340393 26 26 26
7.600707 15.000979 81.788544 25 25 24
7.497437 15.492814 80.677292 19 19 17
7.337916 15.333392 78.960747 18 17 16
7.260675 15.340409 78.129585 17 16 15
3.463873 -4.076864 36.428516 28 24 23
7.448698 -7.415949 78.335732 28 25 26
7.798499 -1.576366 82.014481 29 25 25
7.777016 -1.395715 81.788544 29 25 25
7.755650 -1.216056 81.563850 29 25 25
4.383628 0.306453 46.101307 29 25 24
4.376832 0.405202 46.029835 28 25 24
3.993008 1.818042 41.993271 32 28 26
4.010024 1.916698 42.172218 32 28 26
4.004336 2.004760 42.112400 31 28 26
7.798499 13.274463 82.014481 31 29 30
7.841824 13.525988 82.470116 31 29 29
7.863667 13.741938 82.699837 31 28 28
7.863667 13.920210 82.699837 31 28 29
7.863667 14.098483 82.699837 30 28 28
7.863667 14.276756 82.699837 30 28 28
7.841824 14.414876 82.470116 29 29 28
7.820101 14.552231 82.241669 29 29 28
7.777016 14.648362 81.788544 28 28 27
7.734402 14.743440 81.340393 27 27 27
7.798499 15.042418 82.014481 26 26 26
7.568516 15.285135 79.595825 21 20 19
7.468404 15.252263 78.542969 19 19 17
7.253911 -14.619710 74.596085 23 21 21
7.975295 -1.576366 82.014481 29 25 25
4.489979 0.306929 46.173004 28 26 23
4.089315 1.820617 42.052750 32 28 26
4.106766 1.919425 42.232208 31 28 26
4.100933 2.007607 42.172218 31 28 25
4.575367 7.311182 47.051098 31 31 30
4.539397 7.354332 46.681198 31 30 30
8.109710 13.857740 83.396751 30 28 28
8.086993 13.998195 83.163147 30 27 28
8.086993 14.177466 83.163147 29 27 27
8.086993 14.356738 83.163147 29 28 27
8.064404 14.495406 82.930847 30 29 28
8.019602 14.592654 82.470116 29 29 28
7.975295 14.688828 82.014481 28 28 27
7.975295 14.865623 82.014481 27 27 27
7.975295 15.396009 82.014481 25 25 23
7.824002 15.450828 80.458649 22 22 20
7.931474 16.190536 81.563850 17 17 16
7.975295 16.456783 82.014481 16 15 14
7.953324 16.587755 81.788544 16 15 13
7.740098 16.314627 79.595825 16 15 13
7.377642 -14.546612 74.223106 23 22 21
7.377642 -14.386611 74.223106 22 20 21
7.396132 -14.262267 74.409126 22 21 21
7.433392 -14.172908 74.783989 22 21 21
7.232982 -10.339815 72.767754 27 24 23
7.765939 -7.564854 78.129585 27 24 25
4.691664 7.232679 47.200703 30 30 29
4.684217 7.322786 47.125782 30 30 29
4.632742 7.342787 46.607914 30 30 30
8.336318 14.478405 83.867912 29 28 27
8.289485 14.576841 83.396751 30 29 28
8.243175 14.674177 82.930847 30 29 28
8.220214 14.811575 82.699837 29 29 27
8.220214 14.989848 82.699837 28 28 27
8.243175 15.210490 82.930847 27 27 27
8.197379 15.303765 82.470116 26 26 26
8.152090 15.396009 82.014481 25 25 25
8.085087 15.444810 81.340393 24 24 23
8.107299 15.663064 81.563850 23 23 22
7.932948 15.498267 79.809792 21 21 20
8.019176 15.840640 80.677292 20 19 18
8.152090 16.279987 82.014481 18 17 17
8.152090 16.456783 82.014481 17 16 15
8.107299 16.542185 81.563850 16 15 14
7.975829 16.446907 80.241196 16 15 14
7.537642 -14.546612 74.223106 22 22 21
7.537642 -14.386611 74.223106 22 21 21
7.518845 -14.191133 74.038010 21 21 21
7.955295 -7.584814 78.335732 26 23 24
4.124565 -3.494726 40.614559 28 26 25
4.118930 -3.402520 40.559074 28 26 24
4.124565 -3.319623 40.614559 28 26 24
4.079914 -3.110480 40.174889 28 25 23
8.421946 9.847362 82.930847 30 25 26
8.237860 9.806982 81.118149 30 25 27
4.808703 7.255750 47.351265 29 30 28
4.785804 7.322786 47.125782 29 30 29
4.733213 7.342787 46.607914 29 29 29
8.589905 14.602152 84.584732 30 29 28
8.541237 14.700724 84.105499 30 29 28
8.469260 14.756617 83.396751 30 29 28
8.445537 14.894553 83.163147 29 29 27
8.493117 15.158748 83.631668 29 28 27
8.469260 15.295942 83.396751 28 27 27
8.398486 15.346395 82.699837 26 26 26
8.351957 15.438658 82.241669 25 25 25
8.283123 15.487240 81.563850 24 24 24
8.305942 15.706213 81.788544 23 23 23
8.215413 15.709415 80.897118 22 21 21
8.305942 16.058830 81.788544 21 20 20
8.351957 16.325085 82.241669 19 19 18
8.328886 16.456783 82.014481 18 17 17
8.237860 16.451792 81.118149 17 16 15
8.126838 16.402575 80.024910 17 15 14
8.126838 16.575083 80.024910 16 15 14
7.697641 -14.386611 74.223106 21 21 20
5.876062 -8.661535 56.658859 26 23 23
8.145653 -7.774192 78.542969 26 23 24
8.145653 -7.604880 78.542969 26 23 24
8.102780 -7.396433 78.129585 26 24 24
4.229474 -3.509127 40.781925 28 26 25
4.212116 -3.407174 40.614559 29 26 24
4.206361 -3.315088 40.559074 29 26 24
4.177824 -3.205759 40.283909 28 26 23
4.155272 -3.102084 40.066452 28 25 23
9.274267 1.172757 89.425430 29 26 25
8.018376 1.513947 77.315735 29 26 26
7.935713 1.663287 76.518669 29 26 26
7.976830 1.837708 76.915138 29 26 25
8.039312 2.019205 77.517601 29 26 25
7.997550 2.174949 77.114914 29 27 25
7.976830 2.335118 76.915138 29 27 25
4.982292 7.361417 48.040844 29 29 28
4.895162 7.334428 47.200703 29 29 28
4.841284 7.354332 46.681198 28 28 28
4.773731 7.350939 46.029835 28 27 27
8.772242 14.784489 84.584732 30 29 28
8.673399 14.798184 83.631668 30 29 27
8.673399 14.978466 83.631668 29 28 27
8.722540 15.244633 84.105499 28 27 26
8.673399 15.339029 83.631668 27 26 26
8.600717 15.389261 82.930847 26 25 25
8.529243 15.438658 82.241669 25 24 25
8.458947 15.487240 81.563850 24 24 24
8.412723 15.577474 81.118149 23 23 23
8.389800 15.709415 80.897118 22 22 22
8.505681 16.103191 82.014481 22 21 21
8.529243 16.325085 82.241669 20 20 20
8.482249 16.411448 81.788544 18 18 19
8.367002 16.362379 80.677292 18 17 16
8.254844 16.314627 79.595825 17 16 15
5.592628 -5.798300 52.827831 28 25 26
5.652979 -5.745764 53.397919 28 25 25
8.249493 -7.880957 77.924522 27 24 24
8.314964 -7.774192 78.542969 26 23 24
4.311463 -3.504313 40.725983 28 26 25
4.287935 -3.397878 40.503742 29 26 24
8.249493 -4.353398 77.924522 28 26 25
8.403894 -4.263755 79.383003 29 25 25
8.359193 -4.070863 78.960747 30 26 25
8.100661 1.828236 76.518669 29 26 24
8.038508 2.305257 75.931564 29 26 24
7.997600 2.456375 75.545143 29 26 24
9.031772 9.762516 85.313911 27 24 24
5.102365 7.385317 48.196823 28 27 27
5.028891 7.381369 47.502789 28 27 27
4.957502 7.377532 46.828457 28 27 27
4.895727 7.385289 46.244926 28 27 27
8.878691 14.839987 83.867912 30 28 27
8.878691 15.020778 83.867912 29 27 26
8.929138 15.287942 84.344437 28 26 26
8.853681 15.339029 83.631668 26 25 25
8.779488 15.389261 82.930847 25 24 25
8.706528 15.438658 82.241669 24 24 24
8.634771 15.487240 81.563850 24 23 24
8.494748 15.409069 80.241196 24 23 23
8.730713 16.370432 82.470116 22 21 21
8.658558 16.411448 81.788544 20 20 19
8.540915 16.362379 80.677292 18 18 17
5.686271 -5.777739 52.640499 28 25 25
8.417472 -8.048936 77.924522 28 25 25
8.417472 -7.880957 77.924522 27 24 24
8.265610 -4.439806 76.518669 29 26 25
8.330017 -4.308167 77.114914 29 26 25
8.181267 2.299376 75.737862 28 25 23
8.098628 2.437766 74.972832 28 25 24
9.268950 9.079062 85.807060 27 24 23
9.215680 9.210792 85.313911 28 25 24
5.164342 7.428914 47.808765 27 26 27
9.085146 14.882027 84.105499 30 27 27
9.085146 15.063330 84.105499 29 26 26
9.163019 15.375301 84.826408 28 25 25
9.059482 15.382360 83.867912 27 24 24
8.958259 15.389261 82.930847 25 23 24
8.908491 15.481543 82.470116 24 23 24
8.859273 15.572805 82.014481 24 23 23
8.585450 -8.216915 77.924522 28 25 25
8.562976 -8.027865 77.720528 28 25 25
8.562976 -7.860326 77.720528 27 24 24
8.630756 -7.753679 78.335732 26 24 24
8.365873 2.305257 75.931564 28 25 23
8.281156 2.443938 75.162636 28 25 24
9.453921 9.079062 85.807060 28 24 24
9.453921 9.264033 85.807060 28 24 25
9.345876 9.341016 84.826408 28 24 25
9.399588 15.463665 85.313911 28 24 24
9.292774 15.469760 84.344437 27 23 23
9.162623 15.432368 83.163147 25 22 23
9.111578 15.524667 82.699837 24 22 23
3.965585 -6.690422 35.302311 21 20 19
8.154173 -10.158055 72.589836 27 23 22
8.194242 -10.050724 72.946541 27 24 23
8.154173 -9.845097 72.589836 28 25 24
8.016963 -9.525588 71.368370 28 25 25
8.730515 -8.195405 77.720528 28 25 25
8.707720 -8.006905 77.517601 28 25 24
8.685043 -7.819387 77.315735 27 24 25
8.776464 -7.733275 78.129585 26 24 25
8.529556 2.305257 75.931564 28 26 23
8.464611 2.450141 75.353409 29 26 24
9.583496 9.026883 85.313911 28 24 24
9.556036 9.184400 85.069466 28 24 25
9.421064 9.235467 83.867912 29 25 26
9.611115 15.508229 85.559776 28 24 24
9.501586 15.513833 84.584732 27 23 23
9.368136 15.475718 83.396751 26 22 22
9.315801 15.568032 82.930847 25 21 22
8.310652 -10.158055 72.589836 26 23 22
8.351491 -10.050724 72.946541 27 24 22
8.310652 -9.845097 72.589836 27 25 23
8.190498 -9.548541 71.540344 27 25 23
8.828718 -8.131544 77.114914 28 24 24
8.783092 -7.924146 76.716385 27 24 25
8.760455 -7.738775 76.518669 26 25 25
8.648999 2.293525 75.545143 28 26 23
8.561855 2.431626 74.783989 29 26 24
9.574807 8.848888 83.631668 28 24 25
9.711591 15.558159 84.826408 27 22 23
9.574807 15.519311 83.631668 26 21 22
4.112894 -6.682476 35.260384 22 21 19
8.446480 -10.133280 72.412788 26 24 21
8.487884 -10.026090 72.767754 26 24 22
8.467132 -9.845097 72.589836 26 24 22
8.304692 -9.502745 71.197220 26 24 23
8.925404 -8.068671 76.518669 26 25 25
8.879632 -7.863191 76.126259 26 25 26
8.856922 -7.679398 75.931564 26 25 26
8.679340 1.777833 74.409126 25 24 21
8.508739 1.900136 72.946541 25 23 20
8.571922 2.072662 73.488220 26 24 21
8.679340 2.259036 74.409126 27 25 23
8.571922 2.389494 73.488220 29 26 24
9.922798 15.602737 85.069466 26 22 23
9.782646 15.563151 83.867912 26 21 22
8.581646 -9.797189 72.236603 25 24 21
8.397754 -9.434868 70.688675 25 23 22
8.260086 -9.130315 69.529839 25 23 21
8.221578 -8.938565 69.205696 25 22 21
8.795652 -4.934276 74.038010 30 27 27
8.708782 -4.727517 73.306770 30 27 26
8.795652 -4.615074 74.038010 29 26 25
9.257366 1.525867 77.924522 27 26 23
9.020605 1.650525 75.931564 27 26 23
8.861952 1.782300 74.596085 26 25 22
8.687331 1.904816 73.126213 26 24 22
8.730338 2.072662 73.488220 26 24 22
8.773773 2.242178 73.853836 27 25 23
8.687331 2.377723 73.126213 28 25 24
10.106179 15.602737 85.069466 26 22 22
9.963437 15.563151 83.867912 25 22 22
8.737364 -9.797189 72.236603 25 24 21
8.529826 -9.412457 70.520767 25 23 20
8.351295 -9.066615 69.044746 24 22 20
8.255302 -8.815275 68.251129 24 21 20
9.114357 -5.509250 75.353409 29 27 25
9.045483 -5.306409 74.783989 29 27 26
8.977642 -5.106611 74.223106 30 27 27
8.910810 -4.909788 73.670578 30 28 27
8.866807 -4.727517 73.306770 30 28 27
9.865541 1.421306 81.563850 28 27 26
9.231508 1.659011 76.321960 28 26 24
9.068325 1.791302 74.972832 27 26 23
8.866807 1.909520 73.306770 26 25 23
8.932977 2.082974 73.853836 26 24 22
8.932977 2.242178 73.853836 26 24 22
8.823235 2.371881 72.946541 26 24 23
4.841135 -7.282973 39.323498 22 20 18
4.809285 -7.150848 39.064793 22 20 19
8.661272 -9.390153 70.353653 24 22 20
8.500132 -9.066615 69.044746 23 22 19
8.383158 -8.795056 68.094589 23 21 19
9.229941 -5.319809 74.972832 30 27 26
9.137642 -5.106611 74.223106 30 28 27
9.047170 -4.897635 73.488220 31 29 28
10.069027 1.425222 81.788544 30 27 26
9.772879 1.554426 79.383003 29 27 26
9.469059 1.671905 76.915138 28 26 25
9.253308 1.795837 75.162636 27 26 24
9.069619 1.918996 73.670578 26 24 23
9.206692 2.109208 74.783989 25 24 22
10.295934 8.848888 83.631668 27 25 24
5.062405 6.212404 41.120834 23 23 22
5.048421 6.283640 41.007240 24 23 22
5.034513 6.354484 40.894272 24 24 23
4.978657 -7.446646 39.744637 22 20 18
4.919387 -7.273339 39.271484 22 19 18
4.899943 -7.160269 39.116261 22 19 18
8.628901 -9.045579 68.884552 22 21 19
8.510427 -8.774930 67.938766 23 21 18
9.205585 -4.897635 73.488220 31 29 28
10.245335 1.425222 81.788544 30 26 26
9.944002 1.554426 79.383003 29 26 26
9.634862 1.671905 76.915138 28 26 25
9.439230 1.800395 75.353409 26 25 24
9.297642 1.933389 74.223106 26 24 23
9.439230 2.125268 75.353409 26 23 23
10.476216 8.848888 83.631668 26 25 23
10.359489 8.928567 82.699837 27 26 24
10.302096 9.056386 82.241669 27 26 24
11.235821 12.777509 89.695595 21 20 20
11.101662 12.815987 88.624603 22 21 21
5.122667 6.178175 40.894272 23 23 22
5.122667 6.266330 40.894272 24 23 22
5.108594 6.337027 40.781925 25 24 23
5.101587 6.416125 40.725983 25 24 23
5.704074 8.842569 45.535648 25 24 24
5.010671 -7.367741 39.323498 22 20 18
4.984264 -7.244591 39.116261 21 19 18
4.964641 -7.132080 38.962261 22 19 19
4.945172 -7.020451 38.809467 22 19 19
8.676736 -8.795056 68.094589 23 21 18
9.340880 -4.885542 73.306770 31 29 26
10.364539 1.417412 81.340393 29 26 26
10.115125 1.554426 79.383003 28 26 25
9.826121 1.676248 77.114914 27 25 25
9.601666 1.800395 75.353409 27 25 24
9.553173 1.952918 74.972832 26 24 24
9.650655 2.136111 75.737862 26 24 23
9.601666 2.287704 75.353409 26 23 23
10.656498 8.848888 83.631668 25 25 23
10.508491 8.903765 82.470116 26 25 23
10.450433 9.031368 82.014481 26 25 24
10.393013 9.157570 81.563850 26 25 24
10.393013 9.333394 81.563850 26 24 23
10.142243 9.279774 79.595825 25 23 22
11.463808 12.816229 89.967400 21 20 20
11.394749 12.931793 89.425430 22 20 21
5.196507 6.161202 40.781925 23 22 21
5.203654 6.257710 40.838024 24 23 22
5.189378 6.328334 40.725983 25 24 23
5.182270 6.407336 40.670197 25 23 23
5.140023 6.442059 40.338646 25 23 23
5.811147 8.856153 45.605595 24 24 23
5.075273 -7.338581 39.167866 23 20 19
5.061917 -7.235059 39.064793 23 19 19
5.042014 -7.122732 38.911194 22 19 19
5.115767 -3.482240 39.480373 25 21 21
5.068586 -3.365803 39.116261 25 22 21
9.498905 -4.885542 73.306770 32 28 26
13.888291 -3.677417 107.181381 28 27 25
10.286247 1.554426 79.383003 26 25 23
9.992355 1.676248 77.114914 26 24 22
9.764103 1.800395 75.353409 26 24 22
9.864247 2.147065 76.126259 26 23 23
9.813920 2.299376 75.737862 26 23 23
10.867392 8.873885 83.867912 25 25 23
10.686269 8.903765 82.470116 25 25 23
10.656667 9.056386 82.241669 26 25 23
10.482443 9.082712 80.897118 26 24 23
10.397450 9.182042 80.241196 26 23 23
10.231534 9.205732 78.960747 25 22 22
10.150545 9.301729 78.335732 25 22 22
11.693181 12.855184 90.240860 21 19 20
11.657747 13.010168 89.967400 22 20 20
5.269940 6.056651 40.670197 22 21 21
5.277170 6.152751 40.725983 23 22 21
5.291687 6.257710 40.838024 23 23 22
5.248372 6.468425 40.503742 24 23 23
5.992300 8.880616 46.244926 23 23 22
5.132620 -7.132080 38.962261 23 19 19
5.214742 -3.491526 39.585655 24 21 21
5.159705 -3.370244 39.167866 25 22 21
5.152907 -3.281482 39.116261 25 22 21
5.125894 -3.180399 38.911194 26 24 21
5.079294 -2.902136 38.557457 29 26 23
8.483854 -1.793155 64.401825 28 26 25
10.541932 -0.848098 80.024910 29 27 25
10.457371 -0.670173 79.383003 29 27 25
10.346711 -0.493769 78.542969 28 27 25
10.429484 1.550281 79.171310 24 24 21
10.158588 1.676248 77.114914 24 23 20
9.951798 1.804976 75.545143 25 23 21
10.106090 2.163709 76.716385 27 23 23
10.002703 2.305257 75.931564 27 23 23
11.110956 8.924305 84.344437 25 24 22
10.864046 8.903765 82.470116 26 24 22
10.656830 9.082712 80.897118 26 24 23
10.513593 9.132676 79.809792 26 23 22
10.374156 9.181314 78.751305 26 22 22
10.292254 9.277251 78.129585 25 22 22
5.357612 6.056651 40.670197 22 21 21
5.364961 6.152751 40.725983 22 22 21
5.379720 6.257710 40.838024 22 23 21
5.357612 6.495008 40.670197 23 23 23
5.328415 6.546806 40.448559 23 22 23
6.130183 8.936294 46.534863 23 23 21
10.894308 16.416033 82.699837 22 22 21
10.986115 16.913919 83.396751 22 21 20
10.744661 16.718010 81.563850 21 20 19
5.307152 -3.496188 39.638508 25 22 21
5.251066 -3.374696 39.219608 26 22 21
5.237229 -3.281482 39.116261 26 23 21
5.202954 -3.176236 38.860264 27 24 22
5.057324 -2.761634 37.772572 30 27 25
8.622683 -1.931984 64.401825 28 27 25
8.660254 -1.800969 64.682442 28 26 25
8.641427 -1.657923 64.541832 28 26 25
10.600151 1.550281 79.171310 25 24 19
10.324822 1.676248 77.114914 25 24 20
10.166386 1.977891 75.931564 26 22 21
10.271464 2.163709 76.716385 27 22 22
11.260784 8.899024 84.105499 25 23 23
10.772511 9.033484 80.458649 27 24 24
10.656988 9.108191 79.595825 27 23 23
10.543917 9.181314 78.751305 26 23 23
10.460675 9.277251 78.129585 26 23 22
10.460675 9.445672 78.129585 27 23 23
5.445283 6.056651 40.670197 22 21 21
5.378967 6.589114 40.174889 22 23 22
5.408240 6.712048 40.393528 22 22 22
5.378967 6.848925 40.174889 21 21 20
5.328494 6.870450 39.797913 21 21 20
5.307152 6.928379 39.638508 21 21 20
11.134612 16.866543 83.163147 21 20 19
10.890566 16.672207 81.340393 21 20 19
5.106266 -6.789690 37.533810 23 19 19
5.061474 -6.649930 37.204563 22 18 19
5.048821 -6.553306 37.111553 22 18 18
5.048821 -6.473306 37.111553 22 18 18
5.055140 -6.401307 37.158001 22 19 18
5.385409 -3.491526 39.585655 26 22 22
5.328571 -3.370244 39.167866 27 22 22
5.321550 -3.281482 39.116261 27 23 22
5.286723 -3.176236 38.860264 28 25 23
8.742547 -2.066330 64.262428 27 26 25
8.799687 -1.940402 64.682442 28 27 25
5.729158 -0.173964 42.112400 28 26 26
5.680811 -0.082482 41.757023 29 26 26
10.799617 1.554426 79.383003 25 24 19
10.601198 1.693846 77.924522 25 24 20
10.330069 1.814208 75.931564 25 23 20
10.545840 2.019205 77.517601 26 22 20
10.463878 2.169315 76.915138 26 22 21
11.573228 9.001019 85.069466 25 23 23
10.828570 9.108191 79.595825 28 24 24
10.685335 9.157025 78.542969 27 24 23
10.629096 9.277251 78.129585 27 24 23
10.601198 9.420880 77.924522 27 23 23
5.436146 6.553641 39.958603 23 24 22
5.450819 6.657700 40.066452 23 24 22
5.465570 6.762321 40.174889 22 23 22
5.443472 6.821234 40.012455 22 22 21
5.407037 6.861252 39.744637 21 22 20
5.356839 6.882434 39.375652 21 22 20
5.200325 -6.806901 37.628952 23 19 19
5.148126 -6.658274 37.251244 22 18 18
5.128821 -6.553306 37.111553 22 18 18
9.958876 -12.103506 72.061264 23 20 19
5.470742 -3.491526 39.585655 28 23 23
5.413003 -3.370244 39.167866 28 23 22
8.804843 -2.048594 63.710819 28 27 25
8.881075 -1.927802 64.262428 28 27 25
5.878304 -0.542471 42.534733 29 26 24
5.861509 -0.449492 42.413204 29 25 24
10.970739 1.554426 79.383003 26 24 20
10.797518 1.698304 78.129585 26 24 20
5.514861 3.017951 39.904896 26 25 22
5.529726 3.198592 40.012455 27 26 23
12.032424 9.024503 87.065224 24 22 22
10.685043 9.347280 77.315735 27 23 23
7.998161 8.119601 57.873768 21 20 20
5.537189 6.484960 40.066452 22 23 21
5.514861 6.544833 39.904896 23 24 22
5.522284 6.812053 39.958603 22 23 21
5.470742 6.833807 39.585655 21 22 20
5.294862 -6.824199 37.724579 23 19 18
5.234996 -6.666639 37.298042 22 18 18
10.041101 -12.016011 71.540344 21 19 18
9.019603 -2.204858 64.262428 29 27 24
8.903967 -2.039839 63.438553 29 27 25
8.961412 -1.915365 63.847832 29 27 25
5.978560 -0.543249 42.595757 29 26 25
5.961454 -0.450135 42.473881 29 25 24
5.608421 3.022013 39.958603 25 23 20
5.593365 3.099806 39.851334 25 23 21
5.615979 3.198592 40.012455 25 24 22
5.646418 3.302650 40.229324 26 25 22
5.631157 3.380210 40.120598 27 25 22
12.292203 9.077744 87.578888 25 22 22
8.107114 8.103805 57.761173 21 20 20
6.667291 6.869369 47.502789 23 21 20
5.608421 6.467504 39.958603 22 22 20
5.585867 6.527286 39.797913 23 23 20
5.548677 6.569048 39.532948 23 23 20
5.511980 6.610259 39.271484 23 23 20
5.556076 6.748474 39.585655 22 22 19
5.504698 6.770615 39.219608 21 22 19
10.146419 -11.958380 71.197220 20 19 18
9.158132 -2.204858 64.262428 29 28 24
9.021442 -2.035489 63.303288 29 28 25
9.099047 -1.915365 63.847832 29 28 25
5.679271 2.927994 39.851334 24 23 20
5.694558 3.022013 39.958603 24 22 20
5.679271 3.099806 39.851334 24 22 20
5.702233 3.198592 40.012455 23 22 21
5.748718 3.311624 40.338646 24 23 21
5.733139 3.389370 40.229324 25 24 21
12.407791 9.024503 87.065224 25 22 23
6.769691 6.869369 47.502789 23 21 20
5.671658 6.441495 39.797913 22 21 19
5.648941 6.501142 39.638508 23 21 19
5.589242 6.516982 39.219608 23 21 19
5.559864 6.566827 39.013458 22 21 18
5.559864 6.650927 39.013458 21 21 18
5.567180 6.743889 39.064793 21 22 19
10.275255 -11.929771 71.026894 20 19 19
6.478215 -6.073370 44.780155 23 22 20
9.357422 -2.498136 64.682442 27 25 22
9.398374 -2.369025 64.965523 29 27 23
9.296659 -2.204858 64.262428 30 28 25
9.197124 -2.044207 63.574394 30 28 25
9.256588 -1.919492 63.985435 29 28 25
9.157904 -1.762568 63.303288 29 27 25
5.757449 2.924069 39.797913 25 22 20
5.772925 3.017951 39.904896 25 21 20
5.757449 3.095651 39.797913 24 21 20
5.780695 3.194287 39.958603 23 22 21
5.835675 3.311624 40.338646 24 22 21
5.827756 3.393970 40.283909 24 23 21
12.030971 8.799315 83.163147 25 22 22
11.897664 9.410957 82.241669 24 22 20
5.765177 6.364235 39.851334 22 21 19
5.734388 6.415695 39.638508 22 20 19
5.696362 6.458031 39.375652 22 20 19
5.651391 6.491257 39.064793 22 20 18
5.621802 6.541041 38.860264 22 20 18
5.621802 6.624811 38.860264 21 20 18
5.629170 6.717373 38.911194 21 21 19
5.592522 6.756973 38.657867 21 22 20
10.657840 -12.348764 72.589836 19 18 18
10.453373 -11.958380 71.197220 19 19 19
10.453373 -11.804903 71.197220 20 20 20
10.657840 -11.879327 72.589836 21 21 20
6.554972 -6.247586 44.645477 22 21 19
6.564844 -6.160609 44.712715 22 21 19
6.564844 -6.064224 44.712715 23 22 20
6.535317 -5.940996 44.511608 24 23 21
9.476210 -2.492706 64.541832 27 25 22
9.496856 -2.358703 64.682442 29 26 23
9.394519 -2.195355 63.985435 30 28 24
9.314223 -2.039839 63.438553 30 27 25
9.354198 -1.911254 63.710819 29 27 25
9.274589 -1.758818 63.168602 29 27 25
5.827616 3.087374 39.691502 24 21 20
5.843239 6.355704 39.797913 22 21 19
5.796618 6.390100 39.480373 22 21 19
5.750734 6.423952 39.167866 22 21 19
5.720547 6.474220 38.962261 22 20 18
5.683255 6.515457 38.708267 21 20 18
5.668474 6.581737 38.607597 21 20 19
5.668474 6.664962 38.607597 21 20 19
5.646446 6.721963 38.457569 21 21 20
10.787943 -12.474743 72.412788 18 19 18
10.787943 -12.318645 72.412788 19 19 19
10.581475 -11.929771 71.026894 19 19 19
10.606851 -11.804903 71.197220 20 20 20
10.814320 -11.879327 72.589836 21 21 20
10.840825 -11.751579 72.767754 21 21 20
6.641226 -6.238205 44.578442 22 21 19
6.651213 -6.151345 44.645477 23 22 20
6.651213 -6.055105 44.645477 23 22 20
6.621342 -5.932103 44.444973 24 23 21
9.573715 -2.481915 64.262428 27 25 23
9.573715 -2.343386 64.262428 28 26 23
9.532450 -2.195355 63.985435 29 27 24
9.450975 -2.039839 63.438553 29 27 24
9.450975 -1.903087 63.438553 29 27 24
9.410759 -1.758818 63.168602 29 26 24
5.936989 6.364235 39.851334 22 21 19
5.881724 6.390100 39.480373 21 21 19
5.827479 6.415488 39.116261 21 21 19
5.781774 6.448831 38.809467 21 20 19
5.736779 6.481654 38.507446 21 19 19
5.721936 6.547678 38.407818 21 20 19
5.714543 6.621906 38.358192 21 20 19
10.890914 -12.414186 72.061264 19 19 18
10.944040 -12.318645 72.412788 19 19 19
10.734585 -11.929771 71.026894 20 20 19
10.812184 -11.861794 71.540344 21 20 20
10.997688 -11.908442 72.767754 22 21 20
6.717151 -6.219528 44.444973 22 21 19
6.747454 -6.151345 44.645477 23 21 20
6.747454 -6.055105 44.645477 23 22 21
6.707110 -5.923235 44.378540 24 22 21
11.654693 -4.973103 77.114914 29 27 21
11.564579 -4.769702 76.518669 29 27 22
9.670381 -2.471217 63.985435 27 25 23
9.649584 -2.190633 63.847832 28 26 24
9.567285 -2.035489 63.303288 29 26 23
9.587728 -1.903087 63.438553 29 26 23
9.526660 -1.755084 63.034485 30 25 24
5.966831 6.390100 39.480373 21 21 19
5.904022 6.407047 39.064793 21 21 19
5.850139 6.432015 38.708267 21 20 19
5.812250 6.473258 38.457569 21 20 19
5.797231 6.539219 38.358192 21 20 19
5.789751 6.613362 38.308701 22 21 19
10.992890 -12.045035 71.713142 21 20 20
6.722388 -6.231380 43.854126 23 21 20
6.752309 -6.164161 44.049320 23 21 19
6.833418 -6.142109 44.578442 23 21 20
6.833418 -6.046013 44.578442 23 21 20
6.782499 -5.905581 44.246262 24 22 21
11.019507 -7.115362 71.886787 26 22 22
11.699374 -4.757441 76.321960 28 27 21
11.609838 -4.557766 75.737862 28 27 21
9.745303 -2.181252 63.574394 28 24 23
9.703746 -2.035489 63.303288 29 25 23
9.703746 -1.899029 63.303288 30 25 23
8.185353 7.491646 53.397919 21 20 16
6.043900 6.381614 39.427944 21 21 19
5.988233 6.407047 39.064793 21 21 19
5.941327 6.440412 38.758801 21 20 19
5.887525 6.464884 38.407818 21 20 19
5.872331 6.530781 38.308701 21 20 19
13.153343 17.402761 85.807060 21 20 17
11.480241 -12.563792 73.853836 22 20 19
11.566558 -12.337455 74.409126 23 21 21
6.796844 -6.213026 43.724953 23 20 20
6.806868 -6.127794 43.789444 23 20 19
6.888144 -6.105440 44.312302 23 20 19
6.898440 -6.018901 44.378540 24 21 20
6.847265 -5.879294 44.049320 24 22 20
6.908767 -5.644678 44.444973 27 25 23
11.228848 -7.149987 72.236603 27 22 22
11.311414 -6.888834 72.767754 28 24 24
11.201593 -6.666613 72.061264 28 25 24
11.093886 -6.448665 71.368370 28 25 24
11.743147 -4.546169 75.545143 28 26 21
9.924853 -2.603537 63.847832 26 23 22
9.840206 -2.444871 63.303288 26 22 22
9.840206 -2.171950 63.303288 27 23 23
9.798422 -2.026846 63.034485 28 24 23
9.798422 -1.890965 63.034485 30 25 23
6.500080 0.187825 41.815834 28 23 24
5.970319 6.464884 38.407818 21 20 19
11.905996 -12.362963 75.545143 24 21 21
6.880966 -6.109771 43.660652 24 20 20
6.931936 -6.060214 43.984062 24 20 19
6.942221 -5.974250 44.049320 24 21 19
6.911458 -5.853241 43.854126 24 22 20
11.468276 -6.888834 72.767754 27 24 24
11.356934 -6.666613 72.061264 28 25 24
11.274836 -6.464204 71.540344 27 25 24
11.193915 -6.111590 71.026894 27 26 24
11.875778 -4.372194 75.353409 27 26 22
9.997984 -2.586847 63.438553 26 22 22
9.934303 -2.434489 63.034485 25 22 22
9.934303 -2.298608 63.034485 26 21 21
9.955440 -2.167329 63.168602 27 22 22
9.934303 -2.026846 63.034485 28 24 22
9.913256 -1.886959 62.900936 29 25 23
13.484313 16.799295 85.559776 19 19 16
13.601909 17.317894 86.305939 19 19 16
7.005992 -6.042311 43.854126 24 20 19
11.512274 -6.666613 72.061264 27 25 24
12.959171 -4.007226 81.118149 28 24 23
10.178233 -2.735289 63.710819 28 24 23
10.113127 -2.581332 63.303288 26 23 22
10.070184 -2.434489 63.034485 26 23 22
10.048849 -2.293738 62.900936 26 23 22
10.070184 -2.162727 63.034485 27 23 21
10.048849 -2.022552 62.900936 27 24 22
10.048849 -1.886959 62.900936 27 24 22
6.652253 -0.351535 41.639893 26 24 23
6.652253 -0.261774 41.639893 25 24 23
6.624381 -0.171291 41.465424 25 23 22
6.596741 -0.081564 41.292408 26 23 22
6.670966 0.187560 41.757023 27 23 23
11.947246 1.625581 74.783989 28 25 23
12.007738 2.281913 75.162636 26 23 21
11.947246 2.431626 74.783989 25 22 21
11.887360 2.579838 74.409126 23 21 20
11.887360 2.740239 74.409126 22 20 19
11.857641 2.893389 74.223106 22 21 19
13.098247 -4.170693 80.897118 27 24 23
12.957026 -3.953220 80.024910 28 24 24
10.293483 -2.729432 63.574394 28 25 24
10.227780 -2.575840 63.168602 27 24 23
10.206065 -2.434489 63.034485 26 24 22
10.162910 -2.288889 62.767956 26 23 22
10.184442 -2.158145 62.900936 26 24 21
10.184442 -2.022552 62.900936 26 24 21
10.162910 -1.882969 62.767956 26 24 22
9.993881 -1.718596 61.723995 26 24 22
6.723156 -0.619083 41.523415 27 24 23
6.676467 -0.525895 41.235058 27 24 23
6.723156 -0.350552 41.523415 26 24 23
6.742015 -0.261774 41.639893 25 24 22
6.704402 -0.171052 41.407589 25 24 22
6.667208 -0.081338 41.177868 26 23 21
12.139032 1.629686 74.972832 27 25 23
12.139032 1.791302 74.972832 27 25 22
12.139032 1.952918 74.972832 27 24 22
12.200651 2.125268 75.353409 26 23 21
12.169764 2.281913 75.162636 26 22 20
12.108455 2.431626 74.783989 24 21 20
12.078032 2.586320 74.596085 23 20 19
12.047761 2.740239 74.409126 23 21 19
12.047761 2.900640 74.409126 23 21 19
11.928181 3.030659 73.670578 24 22 21
13.272634 -4.170693 80.897118 27 25 24
10.363951 -2.575840 63.168602 27 25 23
10.320035 -2.429332 62.900936 26 24 22
10.233313 -1.871102 62.372356 25 25 22
6.803152 -0.618219 41.465424 27 24 23
6.746616 -0.524438 41.120834 27 24 23
6.812666 -0.350552 41.523415 26 24 22
6.831777 -0.261774 41.639893 26 24 22
6.793664 -0.171052 41.407589 26 24 21
6.746616 -0.081225 41.120834 26 24 21
12.363088 1.637958 75.353409 27 24 22
12.394547 1.804976 75.545143 27 25 22
