ply
format ascii 1.0
element vertex 1207
property float x
property float y
property float z
property uchar red
property uchar green
property uchar blue
end_header
9.526660 -6.103279 63.034485 41 29 24
9.526660 -5.967398 63.034485 37 26 22
9.486378 -5.806859 62.767956 36 25 22
9.466364 -5.659587 62.635532 36 25 24
9.446435 -5.512936 62.503666 37 25 24
9.446435 -5.378199 62.503666 37 24 24
9.406827 -5.221477 62.241596 39 26 26
9.446435 -5.108726 62.503666 40 27 27
9.466364 -4.984482 62.635532 43 28 28
9.466364 -4.849461 62.635532 46 29 30
9.446435 -4.704515 62.503666 48 29 32
9.466364 -4.579419 62.635532 52 30 34
9.466364 -4.444398 62.635532 56 33 38
9.426590 -4.291270 62.372356 63 39 45
9.466364 -4.174356 62.635532 73 48 54
9.466364 -4.039334 62.635532 81 57 61
9.426590 -3.887909 62.372356 89 68 71
9.466364 -3.769292 62.635532 104 85 87
9.426590 -3.619001 62.372356 115 99 101
9.426590 -3.484547 62.372356 114 102 103
9.406827 -3.343070 62.241596 101 91 92
9.367551 -3.195500 61.981716 87 79 78
9.348035 -3.055509 61.852589 89 80 77
9.367551 -2.928277 61.981716 111 102 96
9.348035 -2.788843 61.852589 151 142 134
9.309246 -2.644491 61.595940 179 169 160
9.348035 -2.522176 61.852589 178 168 159
9.348035 -2.388843 61.852589 178 170 162
9.309246 -2.246150 61.595940 188 180 177
9.328600 -2.117764 61.723995 176 168 169
9.328600 -1.984708 61.723995 142 134 138
9.348035 -1.855509 61.852589 143 136 140
9.367551 -1.725771 61.981716 192 187 189
9.387148 -1.595491 62.111385 230 227 228
9.367551 -1.458548 61.981716 230 228 228
9.426590 -1.333287 62.372356 212 211 209
9.506476 -1.208993 62.900936 207 204 204
9.546929 -1.077967 63.168602 213 209 211
9.608258 -0.947847 63.574394 225 220 223
9.670381 -0.816044 63.985435 241 239 241
9.628877 -0.675203 63.710819 251 251 251
9.691267 -0.541349 64.123634 252 252 252
9.712244 -0.403993 64.262428 253 252 252
9.733312 -0.266040 64.401825 253 253 253
9.775723 -0.127766 64.682442 249 249 249
9.754471 0.011642 64.541832 235 235 235
9.712244 0.150120 64.262428 208 211 209
9.670381 0.287404 63.985435 179 186 182
9.628877 0.423510 63.710819 177 187 185
9.608258 0.559648 63.574394 200 208 210
9.608258 0.696693 63.574394 210 218 222
9.567285 0.830182 63.303288 206 212 218
9.567285 0.966643 63.303288 209 213 218
9.546929 1.100756 63.168602 226 228 230
9.628877 1.247544 63.710819 243 243 244
9.608258 1.381917 63.574394 248 247 246
9.546929 1.509267 63.168602 248 246 244
9.526660 1.641944 63.034485 251 250 249
9.506476 1.774058 62.900936 254 253 252
9.526660 1.913706 63.034485 254 253 251
9.567285 2.058327 63.303288 253 250 248
9.608258 2.204187 63.574394 242 235 234
9.691267 2.361459 64.123634 225 214 213
9.608258 2.478277 63.574394 223 212 211
9.567285 2.604169 63.303288 223 215 215
9.546929 2.734799 63.168602 193 186 187
9.546929 2.870969 63.168602 150 141 143
9.546929 3.007139 63.168602 127 117 121
9.567285 3.150012 63.303288 135 124 130
9.546929 3.279480 63.168602 162 148 156
9.526660 3.408398 63.034485 167 150 160
9.486378 3.529293 62.767956 138 121 130
9.466364 3.656868 62.635532 113 95 102
9.446435 3.783906 62.503666 108 91 95
9.466364 3.926910 62.635532 109 92 93
9.486378 4.070519 62.767956 103 87 86
9.506476 4.214736 62.900936 106 88 85
9.506476 4.350329 62.900936 128 109 104
9.546929 4.505012 63.168602 156 134 128
9.567285 4.651078 63.303288 163 141 132
9.567285 4.787539 63.303288 145 123 110
9.608258 4.945086 63.574394 137 113 99
9.587728 5.071272 63.438553 165 142 128
9.587728 5.208025 63.438553 187 165 153
9.587728 5.344777 63.438553 150 128 116
9.587728 5.481529 63.438553 91 70 60
9.587728 5.618281 63.438553 72 52 44
9.608258 5.767356 63.574394 82 64 59
9.608258 5.904401 63.574394 93 76 73
9.587728 6.028537 63.438553 97 80 80
9.567285 6.152144 63.303288 96 81 83
9.587728 6.302042 63.438553 94 80 83
9.567285 6.425065 63.303288 90 76 79
9.546929 6.547565 63.168602 86 73 75
9.608258 6.726671 63.574394 87 75 76
9.608258 6.863716 63.574394 88 76 74
9.608258 7.000761 63.574394 84 73 67
9.587728 7.122554 63.438553 104 93 86
9.567285 7.243828 63.303288 150 140 132
9.608258 7.411896 63.574394 172 159 151
9.608258 7.548941 63.574394 154 139 129
9.587728 7.669563 63.438553 133 117 107
9.608258 7.823031 63.574394 121 104 96
9.608258 7.960076 63.574394 115 96 89
9.608258 8.097121 63.574394 119 98 93
9.608258 8.234166 63.574394 125 103 98
9.608258 8.371211 63.574394 118 94 89
9.608258 8.508256 63.574394 101 75 70
9.587728 8.626828 63.438553 94 68 62
9.587728 8.763580 63.438553 98 72 66
9.567285 8.881355 63.303288 93 68 61
9.546929 8.998629 63.168602 75 52 45
9.567285 9.154276 63.303288 62 40 34
9.546929 9.270969 63.168602 61 39 35
9.587728 9.447341 63.438553 63 42 40
9.608258 9.604615 63.574394 66 45 43
9.567285 9.700118 63.303288 65 43 43
9.587728 9.857597 63.438553 61 40 39
9.628877 10.037244 63.710819 58 37 36
9.670381 10.218438 63.985435 60 39 38
9.691267 10.378737 64.123634 65 46 44
9.712244 10.539730 64.262428 70 54 51
9.754471 10.724686 64.541832 69 54 51
9.712244 10.816787 64.262428 61 47 44
9.754471 11.002947 64.541832 53 39 36
9.754471 11.142077 64.541832 47 34 31
9.712244 11.232371 64.262428 41 30 29
9.775723 11.445219 64.682442 40 28 27
9.958549 -11.751957 64.965523 21 14 15
9.893601 -11.536183 64.541832 22 15 16
7.424236 -8.343629 48.432693 24 18 19
7.424236 -8.134820 48.432693 24 18 18
9.766216 -7.542156 63.710819 32 24 24
9.724480 -7.373172 63.438553 34 24 26
9.724480 -7.236420 63.438553 36 24 26
9.724480 -7.099668 63.438553 38 25 26
9.724480 -6.962916 63.438553 41 27 27
9.745303 -6.840781 63.574394 46 31 30
9.703746 -6.675148 63.303288 50 35 33
9.662540 -6.510922 63.034485 50 36 32
9.683099 -6.388606 63.168602 47 34 29
9.662540 -6.239161 63.034485 45 32 27
9.642069 -6.090349 62.900936 42 31 26
9.642069 -5.954755 62.900936 39 28 24
9.621684 -5.806859 62.767956 36 25 23
9.581172 -5.647673 62.503666 36 24 24
9.581172 -5.512936 62.503666 37 24 24
9.561044 -5.366900 62.372356 39 24 24
9.540999 -5.221477 62.241596 41 26 27
9.581172 -5.108726 62.503666 43 28 29
9.601385 -4.984482 62.635532 47 30 31
9.601385 -4.849461 62.635532 50 31 33
9.581172 -4.704515 62.503666 51 30 34
9.561044 -4.560178 62.372356 53 30 34
9.581172 -4.435041 62.503666 56 32 37
9.561044 -4.291270 62.372356 65 40 45
9.581172 -4.165567 62.503666 78 51 57
9.601385 -4.039334 62.635532 86 60 66
9.561044 -3.887909 62.372356 94 71 76
9.601385 -3.769292 62.635532 109 89 93
9.561044 -3.619001 62.372356 119 104 107
9.561044 -3.484547 62.372356 115 103 106
9.561044 -3.350094 62.372356 99 90 93
9.501163 -3.195500 61.981716 82 76 77
9.501163 -3.061888 61.981716 81 75 73
9.501163 -2.928277 61.981716 101 95 90
9.501163 -2.794665 61.981716 141 133 127
9.461657 -2.649989 61.723995 182 173 166
9.501163 -2.527442 61.981716 200 193 186
9.501163 -2.393830 61.981716 200 195 191
9.461657 -2.250820 61.723995 192 186 185
9.481368 -2.122176 61.852589 175 167 167
9.501163 -1.992995 61.981716 146 138 140
9.501163 -1.859383 61.981716 149 143 144
9.540999 -1.733007 62.241596 204 200 199
9.561044 -1.602194 62.372356 244 243 241
9.561044 -1.467741 62.372356 243 242 239
9.621684 -1.341743 62.767956 226 223 219
9.703746 -1.216726 63.303288 220 215 211
9.745303 -1.084892 63.574394 228 222 221
9.829496 -0.956036 64.123634 242 236 237
9.893601 -0.823140 64.541832 248 246 247
9.872140 -0.682526 64.401825 246 244 245
9.872140 -0.543697 64.401825 242 239 240
9.893601 -0.405749 64.541832 245 243 243
9.893601 -0.266619 64.541832 249 249 248
9.893601 -0.127488 64.541832 248 248 246
9.872140 0.011617 64.401825 245 245 244
9.829496 0.149796 64.123634 236 238 235
9.766216 0.286171 63.710819 214 219 216
9.745303 0.422603 63.574394 199 207 206
9.724480 0.558452 63.438553 196 204 207
9.724480 0.695204 63.438553 187 195 201
9.683099 0.828416 63.168602 167 175 183
9.703746 0.966643 63.303288 154 159 168
9.662540 1.098419 63.034485 172 175 181
9.745303 1.244873 63.574394 214 214 217
9.745303 1.381917 63.574394 242 240 239
9.703746 1.512485 63.303288 248 245 243
9.662540 1.641944 63.034485 250 249 246
9.662540 1.777825 63.034485 253 252 250
9.662540 1.913706 63.034485 254 252 249
9.703746 2.058327 63.303288 251 247 243
9.766216 2.208917 63.710819 231 224 220
9.829496 2.361459 64.123634 205 193 189
9.745303 2.478277 63.574394 211 199 196
9.703746 2.604169 63.303288 232 225 223
9.683099 2.734799 63.168602 217 211 210
9.683099 2.870969 63.168602 175 166 166
9.703746 3.013551 63.303288 140 130 132
9.724480 3.156743 63.438553 130 119 124
9.703746 3.286472 63.303288 146 133 140
9.683099 3.415650 63.168602 156 141 150
9.642069 3.536770 62.900936 138 123 130
9.621684 3.664599 62.767956 115 100 107
9.621684 3.799906 62.767956 107 93 97
9.621684 3.935212 62.767956 106 92 95
9.642069 4.079143 62.900936 102 88 90
9.642069 4.214736 62.900936 112 96 97
9.642069 4.350329 62.900936 149 131 131
9.683099 4.505012 63.168602 190 171 169
9.703746 4.651078 63.303288 203 184 181
9.703746 4.787539 63.303288 178 156 150
9.724480 4.934520 63.438553 146 122 114
9.724480 5.071272 63.438553 160 138 131
9.703746 5.196920 63.303288 197 178 172
9.724480 5.344777 63.438553 179 160 155
9.703746 5.469841 63.303288 118 98 93
9.703746 5.606302 63.303288 79 58 56
9.724480 5.755033 63.438553 77 58 58
9.724480 5.891785 63.438553 92 73 76
9.703746 6.015683 63.303288 103 84 88
9.683099 6.139054 63.168602 105 87 93
9.724480 6.302042 63.438553 104 86 92
9.683099 6.411395 63.168602 101 84 90
9.683099 6.547565 63.168602 96 81 85
9.724480 6.712298 63.438553 92 78 80
9.745303 6.863716 63.574394 86 73 72
9.724480 6.985802 63.438553 82 69 64
9.703746 7.107368 63.303288 94 81 75
9.703746 7.243828 63.303288 125 113 104
9.724480 7.396059 63.438553 144 131 122
9.724480 7.532811 63.438553 139 125 115
9.724480 7.669563 63.438553 131 114 106
9.724480 7.806315 63.438553 128 110 104
9.724480 7.943067 63.438553 125 105 101
9.745303 8.097121 63.574394 120 98 95
9.724480 8.216572 63.438553 114 90 86
9.745303 8.371211 63.574394 104 77 73
9.724480 8.490076 63.438553 93 64 59
9.724480 8.626828 63.438553 100 70 62
9.724480 8.763580 63.438553 119 90 81
9.683099 8.862458 63.168602 118 91 80
9.683099 8.998629 63.168602 89 64 54
9.703746 9.154276 63.303288 64 42 33
9.683099 9.270969 63.168602 60 38 32
9.703746 9.427197 63.303288 62 41 38
9.724480 9.584093 63.438553 64 43 42
9.703746 9.700118 63.303288 63 42 42
9.724480 9.857597 63.438553 60 39 38
9.766216 10.037244 63.710819 57 36 35
9.808311 10.218438 63.985435 59 39 38
9.829496 10.378737 64.123634 68 49 47
9.850772 10.539730 64.262428 79 63 60
9.893601 10.724686 64.541832 79 65 61
9.850772 10.816787 64.262428 67 54 50
9.872140 10.979079 64.401825 56 43 40
9.893601 11.142077 64.541832 50 37 35
9.850772 11.232371 64.262428 44 33 31
9.903555 -7.542156 63.710819 32 24 24
9.861232 -7.373172 63.438553 34 24 25
9.861232 -7.236420 63.438553 36 25 26
9.861232 -7.099668 63.438553 38 26 26
9.861232 -6.962916 63.438553 41 28 28
9.861232 -6.826163 63.438553 47 32 31
9.840206 -6.675148 63.303288 51 37 35
9.798422 -6.510922 63.034485 50 38 34
9.798422 -6.375041 63.034485 47 35 29
9.777662 -6.225942 62.900936 46 34 28
9.756990 -6.077473 62.767956 44 33 28
9.756990 -5.942166 62.767956 41 30 26
9.736406 -5.794609 62.635532 37 25 24
9.695498 -5.635808 62.372356 36 23 23
9.675171 -5.489821 62.241596 37 23 23
9.675171 -5.355649 62.241596 40 25 25
9.675171 -5.221477 62.241596 43 27 28
9.695498 -5.097993 62.372356 47 29 30
9.736406 -4.984482 62.635532 51 32 34
9.715909 -4.839252 62.503666 54 33 36
9.695498 -4.694632 62.372356 55 30 35
9.695498 -4.560178 62.372356 55 29 34
9.715909 -4.435041 62.503666 58 31 37
9.695498 -4.291270 62.372356 69 40 46
9.715909 -4.165567 62.503666 84 55 61
9.715909 -4.030830 62.503666 94 67 73
9.695498 -3.887909 62.372356 99 76 81
9.715909 -3.761357 62.503666 106 87 93
9.695498 -3.619001 62.372356 111 96 102
9.695498 -3.484547 62.372356 105 95 100
9.695498 -3.350094 62.372356 90 84 89
9.634774 -3.195500 61.981716 74 70 73
9.654930 -3.068294 62.111385 74 70 70
9.654930 -2.934403 62.111385 91 87 84
9.654930 -2.800512 62.111385 124 117 113
9.614701 -2.655509 61.852589 173 167 162
9.654930 -2.532729 62.111385 218 212 208
9.654930 -2.398838 62.111385 220 217 216
9.634774 -2.260218 61.981716 179 176 175
9.634774 -2.126606 61.981716 143 137 137
9.654930 -1.997164 62.111385 133 129 128
9.675171 -1.867179 62.241596 154 150 149
9.715909 -1.740304 62.503666 206 204 201
9.715909 -1.605567 62.503666 243 242 240
9.736406 -1.473934 62.635532 249 247 245
9.777662 -1.344586 62.900936 243 239 235
9.840206 -1.216726 63.303288 234 229 222
9.882348 -1.084892 63.574394 235 228 224
9.946242 -0.953975 63.985435 245 239 237
10.010969 -0.821355 64.401825 244 239 240
10.010969 -0.682526 64.401825 230 224 227
9.967725 -0.541349 64.123634 222 214 218
10.010969 -0.404869 64.401825 229 223 226
10.010969 -0.266040 64.401825 238 236 236
9.989300 -0.126936 64.262428 237 236 235
9.903555 0.011492 63.710819 239 238 237
9.882348 0.148513 63.574394 241 242 241
9.861232 0.284948 63.438553 226 229 228
9.840206 0.420801 63.303288 200 205 206
9.840206 0.557261 63.303288 181 186 192
9.819269 0.692246 63.168602 166 171 180
9.798422 0.826657 63.034485 142 147 159
9.819269 0.964586 63.168602 113 117 129
9.777662 1.096092 62.900936 115 117 126
9.840206 1.239564 63.303288 165 165 170
9.840206 1.376024 63.303288 221 219 221
9.819269 1.509267 63.168602 244 243 241
9.777662 1.638465 62.900936 248 246 242
9.777662 1.774058 62.900936 249 247 241
9.756990 1.905614 62.767956 249 246 240
9.777662 2.045245 62.900936 240 236 228
9.819269 2.190118 63.168602 210 201 193
9.946242 2.356369 63.985435 179 165 159
9.861232 2.472982 63.438553 193 180 176
9.819269 2.598629 63.168602 229 221 219
9.798422 2.728992 63.034485 227 220 219
9.819269 2.870969 63.168602 195 185 183
9.840206 3.013551 63.303288 159 148 148
9.861232 3.156743 63.438553 132 121 123
9.840206 3.286472 63.303288 128 115 120
9.819269 3.415650 63.168602 138 125 131
9.777662 3.536770 62.900936 140 126 132
9.777662 3.672363 62.900936 131 118 123
9.756990 3.799906 62.767956 122 110 114
9.756990 3.935212 62.767956 116 104 107
9.777662 4.079143 62.900936 111 98 101
9.777662 4.214736 62.900936 125 111 114
9.756990 4.341132 62.767956 171 157 160
9.798422 4.495447 63.034485 220 207 209
9.819269 4.641182 63.168602 236 225 226
9.819269 4.777352 63.168602 208 193 193
9.840206 4.923999 63.303288 152 133 130
9.840206 5.060460 63.303288 131 113 110
9.840206 5.196920 63.303288 173 157 154
9.840206 5.333381 63.303288 200 185 183
9.819269 5.458203 63.168602 163 146 146
9.840206 5.606302 63.303288 101 83 86
9.861232 5.755033 63.438553 74 55 60
9.861232 5.891785 63.438553 84 65 71
9.840206 6.015683 63.303288 100 80 87
9.819269 6.139054 63.168602 107 87 95
9.840206 6.288604 63.303288 110 90 98
9.819269 6.411395 63.168602 113 93 101
9.798422 6.533663 63.034485 116 98 104
9.840206 6.697986 63.303288 112 95 100
9.840206 6.834446 63.303288 98 83 83
9.840206 6.970907 63.303288 87 72 70
9.819269 7.092246 63.168602 97 83 78
9.819269 7.228416 63.168602 118 105 98
9.840206 7.380289 63.303288 127 112 104
9.840206 7.516749 63.303288 122 107 99
9.840206 7.653210 63.303288 122 104 98
9.861232 7.806315 63.438553 130 111 106
9.861232 7.943067 63.438553 136 115 113
9.882348 8.097121 63.574394 129 106 104
9.861232 8.216572 63.438553 109 83 81
9.882348 8.371211 63.574394 89 59 57
9.861232 8.490076 63.438553 82 50 44
9.840206 8.608434 63.303288 103 71 61
9.840206 8.744894 63.303288 144 114 101
9.819269 8.862458 63.168602 154 126 112
9.819269 8.998629 63.168602 113 87 73
9.840206 9.154276 63.303288 70 46 35
9.819269 9.270969 63.168602 58 36 29
9.840206 9.427197 63.303288 60 40 36
9.861232 9.584093 63.438553 61 42 40
9.840206 9.700118 63.303288 61 42 41
9.882348 9.878705 63.574394 59 39 39
9.903555 10.037244 63.710819 56 35 36
9.946242 10.218438 63.985435 57 37 37
9.967725 10.378737 64.123634 67 49 47
9.989300 10.539730 64.262428 81 65 63
10.010969 10.701422 64.401825 83 69 66
9.967725 10.793425 64.123634 70 57 53
10.010969 10.979079 64.401825 58 46 42
10.010969 11.117908 64.401825 55 43 39
9.989300 11.232371 64.262428 49 37 34
10.040895 -7.542156 63.710819 32 24 23
9.997984 -7.373172 63.438553 34 24 25
9.997984 -7.236420 63.438553 35 25 26
9.997984 -7.099668 63.438553 37 26 26
9.976666 -6.948070 63.303288 40 28 28
9.997984 -6.826163 63.438553 45 32 32
9.955440 -6.660946 63.168602 50 38 36
9.934303 -6.510922 63.034485 50 38 35
9.934303 -6.375041 63.034485 46 35 31
9.913256 -6.225942 62.900936 46 35 30
9.892298 -6.077473 62.767956 46 35 31
9.892298 -5.942166 62.767956 43 31 29
9.871428 -5.794609 62.635532 37 25 24
9.829951 -5.635808 62.372356 36 22 22
9.809343 -5.489821 62.241596 38 23 24
9.809343 -5.355649 62.241596 42 26 27
9.809343 -5.221477 62.241596 46 28 30
9.829951 -5.097993 62.372356 51 31 34
9.871428 -4.984482 62.635532 56 35 38
9.850646 -4.839252 62.503666 59 35 39
9.829951 -4.694632 62.372356 57 30 35
9.809343 -4.550618 62.241596 56 26 33
9.850646 -4.435041 62.503666 60 29 36
9.850646 -4.300304 62.503666 71 40 47
9.871428 -4.174356 62.635532 90 60 67
9.871428 -4.039334 62.635532 107 79 87
9.829951 -3.887909 62.372356 107 83 91
9.850646 -3.761357 62.503666 99 80 88
9.850646 -3.626620 62.503666 96 83 91
9.850646 -3.491883 62.503666 93 84 92
9.850646 -3.357146 62.503666 81 76 83
9.788821 -3.202185 62.111385 66 65 69
9.809343 -3.074727 62.241596 66 65 66
9.809343 -2.940555 62.241596 82 81 80
9.788821 -2.800512 62.111385 111 107 105
9.748034 -2.655509 61.852589 160 157 154
9.788821 -2.532729 62.111385 216 213 211
9.809343 -2.403867 62.241596 221 219 219
9.788821 -2.264947 62.111385 153 153 152
9.788821 -2.131056 62.111385 97 96 95
9.809343 -2.001351 62.241596 114 114 112
9.809343 -1.867179 62.241596 165 165 162
9.871428 -1.743976 62.635532 205 205 202
9.871428 -1.608955 62.635532 227 227 224
9.871428 -1.473934 62.635532 243 241 238
9.913256 -1.344586 62.900936 249 247 242
9.934303 -1.211560 63.034485 242 239 231
9.955440 -1.077967 63.168602 239 232 226
9.976666 -0.943805 63.303288 242 233 230
9.976666 -0.807344 63.303288 231 223 224
9.976666 -0.670884 63.303288 213 203 207
9.976666 -0.534423 63.303288 203 193 199
9.997984 -0.398813 63.438553 209 201 207
9.997984 -0.262061 63.438553 219 214 219
9.976666 -0.125042 63.303288 222 219 223
9.934303 0.011370 63.034485 230 227 230
9.913256 0.146940 62.900936 241 240 242
9.934303 0.283133 63.034485 231 231 234
9.934303 0.419014 63.034485 196 197 202
9.934303 0.554895 63.034485 164 165 173
9.934303 0.690776 63.034485 147 147 159
9.913256 0.824906 62.900936 129 130 143
9.934303 0.962538 63.034485 101 101 115
9.892298 1.093775 62.767956 87 85 97
9.934303 1.234300 63.034485 113 110 119
9.955440 1.373097 63.168602 171 167 173
9.934303 1.506063 63.034485 220 216 217
9.913256 1.638465 62.900936 237 233 228
9.871428 1.766573 62.635532 235 230 223
9.871428 1.901594 62.635532 227 221 214
9.871428 2.036615 62.635532 204 198 188
9.892298 2.176227 62.767956 173 163 154
9.976666 2.331248 63.303288 161 149 141
9.955440 2.462458 63.168602 193 181 176
9.934303 2.593112 63.034485 230 222 219
9.913256 2.723211 62.900936 227 219 217
9.913256 2.858804 62.900936 199 188 186
9.934303 3.000755 63.034485 172 160 158
9.955440 3.143310 63.168602 145 132 133
9.955440 3.279480 63.168602 128 115 117
9.934303 3.408398 63.034485 137 124 127
9.913256 3.536770 62.900936 156 144 146
9.892298 3.664599 62.767956 161 150 152
9.892298 3.799906 62.767956 152 140 143
9.871428 3.926910 62.635532 137 126 129
9.913256 4.079143 62.900936 128 116 120
9.892298 4.205825 62.767956 141 127 133
9.892298 4.341132 62.767956 184 171 177
9.913256 4.485923 62.900936 227 217 222
9.934303 4.631328 63.034485 244 237 241
9.934303 4.767209 63.034485 228 218 221
9.976666 4.923999 63.303288 174 160 162
9.976666 5.060460 63.303288 126 112 112
9.955440 5.185863 63.168602 142 129 130
9.976666 5.333381 63.303288 190 179 181
9.955440 5.458203 63.168602 196 183 186
9.955440 5.594373 63.168602 145 129 135
9.976666 5.742762 63.303288 94 76 83
9.997984 5.891785 63.438553 84 64 73
9.955440 6.002884 63.168602 98 77 86
9.955440 6.139054 63.168602 108 86 96
9.976666 6.288604 63.303288 110 88 99
9.955440 6.411395 63.168602 115 94 105
9.934303 6.533663 63.034485 127 108 117
9.955440 6.683735 63.168602 130 112 119
9.955440 6.819905 63.168602 111 94 98
9.955440 6.956076 63.168602 93 76 77
9.955440 7.092246 63.168602 101 85 83
9.955440 7.228416 63.168602 122 105 101
9.976666 7.380289 63.303288 126 109 103
9.976666 7.516749 63.303288 115 97 92
9.976666 7.653210 63.303288 111 91 88
9.997984 7.806315 63.438553 122 100 99
9.997984 7.943067 63.438553 136 112 113
10.019393 8.097121 63.574394 132 106 108
9.997984 8.216572 63.438553 108 79 80
10.019393 8.371211 63.574394 82 51 49
9.997984 8.490076 63.438553 74 41 35
9.976666 8.608434 63.303288 103 69 58
9.976666 8.744894 63.303288 161 130 115
9.976666 8.881355 63.303288 185 156 139
9.955440 8.998629 63.168602 137 111 95
9.955440 9.134799 63.168602 77 54 41
9.934303 9.251286 63.034485 56 35 26
9.976666 9.427197 63.303288 57 38 33
9.997984 9.584093 63.438553 59 41 39
9.976666 9.700118 63.303288 60 42 41
10.019393 9.878705 63.574394 60 41 41
10.062488 10.058829 63.847832 56 37 37
10.084174 10.218438 63.985435 55 36 37
10.105954 10.378737 64.123634 63 46 45
10.127829 10.539730 64.262428 77 61 59
10.149797 10.701422 64.401825 81 67 64
10.105954 10.793425 64.123634 70 57 54
10.127829 10.955315 64.262428 62 49 45
10.127829 11.093843 64.262428 60 47 43
10.105954 11.208111 64.123634 54 41 38
10.194023 13.118422 64.682442 33 26 26
10.421062 15.548676 66.123032 24 18 17
7.637773 -8.854500 47.808765 20 14 14
7.588891 -7.876231 47.502789 25 19 19
10.178233 -7.542156 63.710819 32 24 23
10.113127 -7.357451 63.303288 33 24 24
10.134736 -7.236420 63.438553 35 25 25
10.134736 -7.099668 63.438553 37 26 26
10.113127 -6.948070 63.303288 40 28 29
10.134736 -6.826163 63.438553 44 32 32
10.113127 -6.675148 63.303288 48 37 35
10.070184 -6.510922 63.034485 49 38 37
10.070184 -6.375041 63.034485 48 37 35
10.070184 -6.239161 63.034485 47 36 33
10.048849 -6.090349 62.900936 47 36 34
10.048849 -5.954755 62.900936 44 32 31
10.027604 -5.806859 62.767956 38 24 24
9.985382 -5.647673 62.503666 36 22 22
9.964405 -5.501354 62.372356 40 24 25
9.964405 -5.366900 62.372356 46 28 29
9.964405 -5.232447 62.372356 50 31 34
9.985382 -5.108726 62.503666 55 34 37
10.006449 -4.984482 62.635532 60 38 42
10.006449 -4.849461 62.635532 62 36 41
9.964405 -4.694632 62.372356 59 29 35
9.943515 -4.550618 62.241596 56 25 32
10.006449 -4.444398 62.635532 61 27 36
10.006449 -4.309377 62.635532 72 39 48
10.027604 -4.183181 62.767956 96 64 73
10.006449 -4.039334 62.635532 121 92 102
9.964405 -3.887909 62.372356 119 94 104
10.006449 -3.769292 62.635532 97 77 87
9.985382 -3.626620 62.503666 84 71 81
9.985382 -3.491883 62.503666 79 73 81
9.985382 -3.357146 62.503666 70 68 75
9.922712 -3.202185 62.111385 60 61 65
9.943515 -3.074727 62.241596 60 62 64
9.943515 -2.940555 62.241596 73 75 75
9.901998 -2.794665 61.981716 101 101 100
9.901998 -2.661053 61.981716 151 151 149
9.922712 -2.532729 62.111385 208 208 207
9.943515 -2.403867 62.241596 215 214 214
9.922712 -2.264947 62.111385 139 139 139
9.943515 -2.135523 62.241596 77 78 78
9.943515 -2.001351 62.241596 110 112 112
9.964405 -1.871102 62.372356 175 179 177
10.006449 -1.743976 62.635532 204 208 204
10.006449 -1.608955 62.635532 212 215 209
10.006449 -1.473934 62.635532 226 228 221
10.070184 -1.347441 63.034485 242 242 236
10.070184 -1.211560 63.034485 247 245 239
10.048849 -1.073399 62.900936 246 241 234
10.070184 -0.939797 63.034485 240 232 226
10.048849 -0.802213 62.900936 227 217 216
10.027604 -0.665210 62.767956 214 205 207
10.048849 -0.531027 62.900936 203 195 199
10.048849 -0.395433 62.900936 199 191 198
10.048849 -0.259840 62.900936 203 197 205
10.027604 -0.123984 62.767956 204 199 207
10.006449 0.011298 62.635532 208 204 212
9.985382 0.146012 62.503666 221 218 225
10.006449 0.281341 62.635532 219 217 224
10.027604 0.417242 62.767956 192 189 198
10.027604 0.552549 62.767956 162 158 170
10.048849 0.689312 62.900936 145 142 156
10.027604 0.823162 62.767956 131 127 142
10.048849 0.960499 62.900936 108 103 119
10.006449 1.091467 62.635532 85 79 95
10.070184 1.234300 63.034485 83 75 89
10.113127 1.376024 63.303288 117 109 118
10.091610 1.509267 63.168602 173 165 168
10.048849 1.638465 62.900936 204 196 194
10.006449 1.766573 62.635532 203 195 190
10.006449 1.901594 62.635532 187 179 173
10.006449 2.036615 62.635532 158 150 142
10.027604 2.176227 62.767956 139 129 122
10.091610 2.326288 63.168602 155 144 138
10.091610 2.462458 63.168602 197 186 181
10.070184 2.593112 63.034485 228 218 214
10.048849 2.723211 62.900936 220 211 206
10.048849 2.858804 62.900936 193 182 178
10.070184 3.000755 63.034485 175 163 159
10.070184 3.136636 63.034485 159 146 144
10.070184 3.272517 63.034485 142 130 129
10.070184 3.408398 63.034485 148 138 137
10.048849 3.536770 62.900936 178 168 167
10.048849 3.672363 62.900936 194 185 184
10.027604 3.799906 62.767956 185 176 176
10.027604 3.935212 62.767956 168 158 159
10.027604 4.070519 62.767956 155 144 148
10.027604 4.205825 62.767956 157 145 152
10.027604 4.341132 62.767956 183 170 178
10.048849 4.485923 62.900936 211 200 208
10.070184 4.631328 63.034485 223 213 221
10.070184 4.767209 63.034485 219 209 216
10.091610 4.913522 63.168602 189 179 185
10.091610 5.049693 63.168602 140 130 135
10.091610 5.185863 63.168602 122 112 116
10.113127 5.333381 63.303288 157 148 152
10.091610 5.458203 63.168602 199 190 194
10.091610 5.594373 63.168602 189 176 181
10.091610 5.730544 63.168602 135 118 125
10.113127 5.879223 63.303288 103 84 92
10.091610 6.002884 63.168602 107 87 95
10.091610 6.139054 63.168602 114 92 101
10.113127 6.288604 63.303288 112 90 100
10.091610 6.411395 63.168602 112 91 101
10.070184 6.533663 63.034485 122 103 114
10.113127 6.697986 63.303288 129 111 119
10.091610 6.819905 63.168602 114 98 103
10.091610 6.956076 63.168602 98 82 84
10.091610 7.092246 63.168602 105 88 87
10.070184 7.213069 63.034485 128 110 107
10.091610 7.364586 63.168602 136 117 112
10.113127 7.516749 63.303288 120 99 95
10.091610 7.636927 63.168602 103 82 79
10.113127 7.789670 63.303288 107 83 83
10.134736 7.943067 63.438553 123 97 99
10.156438 8.097121 63.574394 126 98 101
10.134736 8.216572 63.438553 106 76 77
10.156438 8.371211 63.574394 82 50 49
10.134736 8.490076 63.438553 73 40 34
10.113127 8.608434 63.303288 97 64 52
10.113127 8.744894 63.303288 158 127 110
10.113127 8.881355 63.303288 194 167 148
10.091610 8.998629 63.168602 154 130 111
10.113127 9.154276 63.303288 88 65 50
10.091610 9.270969 63.168602 57 36 25
10.113127 9.427197 63.303288 54 36 29
10.134736 9.584093 63.438553 58 39 37
10.134736 9.720845 63.438553 60 42 42
10.156438 9.878705 63.574394 61 42 43
10.200122 10.058829 63.847832 58 39 40
10.222105 10.218438 63.985435 56 37 37
10.244183 10.378737 64.123634 61 44 43
10.266356 10.539730 64.262428 74 58 56
10.266356 10.678259 64.262428 80 64 63
10.222105 10.770163 63.985435 72 58 56
10.244183 10.931653 64.123634 64 51 48
10.222105 11.046024 63.985435 62 49 46
10.222105 11.183956 63.985435 56 43 40
10.401440 13.064376 65.107986 34 27 27
10.356019 13.147064 64.823669 33 26 26
10.288626 13.200337 64.401825 32 25 26
10.266356 13.310293 64.262428 31 25 25
10.540126 15.514123 65.976097 24 18 16
7.740832 -8.854500 47.808765 19 14 14
7.654549 -8.653893 47.275864 19 14 14
10.404884 -8.577152 64.262428 27 22 21
10.315572 -7.542156 63.710819 31 23 23
10.249588 -7.357451 63.303288 32 24 24
10.271488 -7.236420 63.438553 33 25 25
10.293483 -7.114871 63.574394 36 26 26
10.271488 -6.962916 63.438553 39 28 29
10.271488 -6.826163 63.438553 42 31 32
10.249588 -6.675148 63.303288 45 35 35
10.206065 -6.510922 63.034485 48 38 38
10.206065 -6.375041 63.034485 47 37 36
10.206065 -6.239161 63.034485 46 35 34
10.206065 -6.103279 63.034485 47 36 35
10.184442 -5.954755 62.900936 45 31 32
10.162910 -5.806859 62.767956 39 25 25
10.141470 -5.659587 62.635532 40 24 25
10.120119 -5.512936 62.503666 44 27 28
10.098859 -5.366900 62.372356 50 31 33
10.098859 -5.232447 62.372356 55 35 38
10.120119 -5.108726 62.503666 59 37 41
10.141470 -4.984482 62.635532 62 38 43
10.141470 -4.849461 62.635532 63 35 41
10.098859 -4.694632 62.372356 59 29 36
10.077687 -4.550618 62.241596 58 26 34
10.141470 -4.444398 62.635532 62 27 39
10.141470 -4.309377 62.635532 71 37 49
10.162910 -4.183181 62.767956 94 61 74
10.141470 -4.039334 62.635532 128 98 111
10.120119 -3.896094 62.503666 137 111 124
10.141470 -3.769292 62.635532 110 90 102
10.120119 -3.626620 62.503666 80 68 78
10.120119 -3.491883 62.503666 67 61 69
10.120119 -3.357146 62.503666 59 59 65
10.056603 -3.202185 62.111385 56 58 62
10.098859 -3.081186 62.372356 56 60 62
10.077687 -2.940555 62.241596 63 67 68
10.035609 -2.794665 61.981716 94 97 97
10.014701 -2.655509 61.852589 156 158 157
10.056603 -2.532729 62.111385 215 216 215
10.077687 -2.403867 62.241596 222 222 222
10.056603 -2.264947 62.111385 159 159 159
10.077687 -2.135523 62.241596 99 101 102
10.098859 -2.005556 62.372356 120 125 125
10.098859 -1.871102 62.372356 179 186 184
10.162910 -1.747663 62.767956 213 219 216
10.162910 -1.612356 62.767956 214 219 214
10.162910 -1.477050 62.767956 208 211 205
10.227780 -1.350307 63.168602 220 221 217
10.206065 -1.211560 63.034485 243 243 238
10.206065 -1.075678 63.034485 252 249 244
10.206065 -0.939797 63.034485 244 238 232
10.162910 -0.800517 62.767956 236 229 224
10.162910 -0.665210 62.767956 232 226 225
10.162910 -0.529904 62.767956 221 214 216
10.162910 -0.394597 62.767956 206 199 203
10.141470 -0.258744 62.635532 199 193 199
10.141470 -0.123723 62.635532 188 183 190
10.098859 0.011251 62.372356 176 172 180
10.098859 0.145705 62.372356 178 174 183
10.120119 0.280748 62.503666 182 177 188
10.141470 0.416362 62.635532 180 173 185
10.162910 0.552549 62.767956 178 171 184
10.206065 0.690776 63.034485 177 169 183
10.162910 0.823162 62.767956 161 153 168
10.184442 0.960499 62.900936 128 119 136
10.184442 1.096092 62.900936 98 88 105
10.271488 1.242213 63.438553 86 75 90
10.315572 1.384883 63.710819 95 83 95
10.271488 1.515717 63.438553 124 113 120
10.227780 1.645437 63.168602 146 137 139
10.162910 1.770308 62.767956 151 143 142
10.141470 1.901594 62.635532 150 142 138
10.141470 2.036615 62.635532 137 128 124
10.162910 2.176227 62.767956 132 122 117
10.206065 2.321349 63.034485 155 144 140
10.227780 2.462458 63.168602 195 184 179
10.227780 2.598629 63.168602 223 212 206
10.184442 2.723211 62.900936 221 210 203
10.184442 2.858804 62.900936 200 188 181
10.206065 3.000755 63.034485 180 169 162
10.206065 3.136636 63.034485 165 155 149
10.227780 3.279480 63.168602 153 144 140
10.227780 3.415650 63.168602 157 148 146
10.227780 3.551820 63.168602 183 175 173
10.227780 3.687990 63.168602 208 200 200
10.206065 3.816041 63.034485 213 206 207
10.184442 3.943550 62.900936 205 197 200
10.206065 4.087803 63.034485 190 181 186
10.206065 4.223685 63.034485 177 165 174
10.184442 4.350329 62.900936 178 166 176
10.184442 4.485923 62.900936 186 174 184
10.206065 4.631328 63.034485 187 176 185
10.206065 4.767209 63.034485 183 174 182
10.227780 4.913522 63.168602 170 163 168
10.227780 5.049693 63.168602 141 135 139
10.206065 5.174852 63.034485 120 114 117
10.227780 5.322033 63.168602 139 132 134
10.206065 5.446615 63.034485 180 172 173
10.206065 5.582496 63.034485 191 180 182
10.227780 5.730544 63.168602 160 145 147
10.227780 5.866714 63.168602 134 116 120
10.227780 6.002884 63.168602 132 113 117
10.227780 6.139054 63.168602 130 110 115
10.249588 6.288604 63.303288 121 102 109
10.227780 6.411395 63.168602 116 97 107
10.206065 6.533663 63.034485 116 97 108
10.227780 6.683735 63.168602 112 96 105
10.206065 6.805426 63.034485 104 88 95
10.206065 6.941307 63.034485 101 85 88
10.206065 7.077188 63.034485 113 95 97
10.206065 7.213069 63.034485 134 114 114
10.206065 7.348950 63.034485 146 125 122
10.206065 7.484831 63.034485 135 112 108
10.206065 7.620712 63.034485 109 85 83
10.249588 7.789670 63.303288 97 71 72
10.249588 7.926131 63.303288 106 79 82
10.271488 8.079820 63.438553 113 85 89
10.271488 8.216572 63.438553 101 71 74
10.271488 8.353324 63.438553 83 51 51
10.271488 8.490076 63.438553 75 43 37
10.249588 8.608434 63.303288 93 61 49
10.249588 8.744894 63.303288 144 113 97
10.249588 8.881355 63.303288 183 157 138
10.249588 9.017816 63.303288 159 135 117
10.249588 9.154276 63.303288 100 77 62
10.227780 9.270969 63.168602 62 42 30
10.249588 9.427197 63.303288 54 35 28
10.293483 9.604615 63.574394 57 38 35
10.271488 9.720845 63.438553 61 43 42
10.315572 9.899904 63.710819 63 44 45
10.337756 10.058829 63.847832 60 40 42
10.360036 10.218438 63.985435 56 36 37
10.382412 10.378737 64.123634 60 42 41
10.382412 10.516967 64.123634 72 54 53
10.404884 10.678259 64.262428 78 62 61
10.360036 10.770163 63.985435 75 60 59
10.360036 10.908093 63.985435 68 54 52
10.337756 11.022270 63.847832 64 50 47
10.337756 11.159904 63.847832 57 43 40
10.360036 11.321887 63.985435 47 33 30
10.450123 12.672512 64.541832 40 32 29
10.611604 13.009615 65.539169 37 30 29
10.588230 13.121928 65.394806 35 28 28
10.518723 13.175833 64.965523 33 27 26
10.472890 13.257855 64.682442 32 26 25
10.427455 13.339166 64.401825 30 25 24
10.635081 15.303884 65.684166 25 18 17
10.588230 15.377435 65.394806 25 17 16
10.589253 -8.892706 64.541832 24 19 18
10.589253 -8.753575 64.541832 25 20 19
10.543412 -8.577152 64.262428 26 21 20
10.430528 -7.526005 63.574394 29 22 22
10.386048 -7.357451 63.303288 31 23 23
10.408240 -7.236420 63.438553 32 24 24
10.408240 -7.099668 63.438553 34 25 26
10.386048 -6.948070 63.303288 37 28 27
10.386048 -6.811609 63.303288 39 30 30
10.363951 -6.660946 63.168602 42 32 34
10.320035 -6.497128 62.900936 45 35 35
10.320035 -6.361535 62.900936 45 34 35
10.320035 -6.225942 62.900936 45 33 33
10.320035 -6.090349 62.900936 47 34 35
10.298217 -5.942166 62.767956 46 31 32
10.298217 -5.806859 62.767956 44 28 28
10.276491 -5.659587 62.635532 47 29 30
10.254856 -5.512936 62.503666 51 33 33
10.233313 -5.366900 62.372356 56 36 38
10.233313 -5.232447 62.372356 61 39 42
10.254856 -5.108726 62.503666 63 41 45
10.276491 -4.984482 62.635532 63 39 44
10.276491 -4.849461 62.635532 61 35 40
10.254856 -4.704515 62.503666 57 30 36
10.211859 -4.550618 62.241596 58 28 36
10.276491 -4.444398 62.635532 62 29 41
10.298217 -4.318487 62.767956 67 35 49
10.298217 -4.183181 62.767956 85 52 67
10.276491 -4.039334 62.635532 125 95 110
10.254856 -3.896094 62.503666 159 134 148
10.276491 -3.769292 62.635532 142 123 135
10.254856 -3.626620 62.503666 92 80 89
10.254856 -3.491883 62.503666 57 51 59
10.254856 -3.357146 62.503666 48 48 53
10.211859 -3.208898 62.241596 50 54 57
10.233313 -3.081186 62.372356 52 58 59
10.211859 -2.940555 62.241596 55 61 62
10.148035 -2.788843 61.852589 92 96 96
10.169221 -2.661053 61.981716 169 172 171
10.211859 -2.538039 62.241596 229 230 229
10.233313 -2.408917 62.372356 240 240 239
10.211859 -2.269695 62.241596 202 202 203
10.233313 -2.140009 62.372356 150 152 152
10.233313 -2.005556 62.372356 138 143 143
10.254856 -1.875041 62.503666 176 182 183
10.298217 -1.747663 62.767956 220 226 226
10.298217 -1.612356 62.767956 225 228 227
10.320035 -1.480179 62.900936 199 202 200
10.408240 -1.356078 63.438553 199 201 200
10.363951 -1.214137 63.168602 231 230 229
10.363951 -1.077967 63.168602 249 248 246
10.363951 -0.941797 63.168602 249 246 242
10.320035 -0.802213 62.900936 247 242 238
10.298217 -0.665210 62.767956 244 240 237
10.298217 -0.529904 62.767956 229 223 222
10.276491 -0.393765 62.635532 210 203 204
10.254856 -0.258199 62.503666 201 195 198
10.254856 -0.123462 62.503666 187 182 187
10.211859 0.011227 62.241596 165 161 169
10.211859 0.145399 62.241596 149 144 155
10.211859 0.279571 62.241596 147 141 153
10.233313 0.414612 62.372356 168 161 174
10.276491 0.551383 62.635532 201 194 206
10.341947 0.690776 63.034485 218 211 221
10.320035 0.824906 62.900936 204 196 208
10.363951 0.964586 63.168602 162 151 168
10.363951 1.100756 63.168602 122 108 127
10.475390 1.250227 63.847832 105 90 108
10.475390 1.387861 63.847832 99 85 100
10.430528 1.518963 63.574394 99 85 97
10.363951 1.645437 63.168602 102 91 99
10.320035 1.774058 62.900936 112 103 108
10.276491 1.901594 62.635532 129 120 123
10.254856 2.032327 62.503666 139 130 131
10.276491 2.171636 62.635532 143 133 132
10.320035 2.316431 62.900936 160 149 146
10.341947 2.457230 63.034485 193 181 177
10.341947 2.593112 63.034485 220 208 201
10.320035 2.723211 62.900936 223 212 203
10.320035 2.858804 62.900936 212 201 191
10.341947 3.136636 63.034485 174 167 158
10.341947 3.272517 63.034485 164 158 152
10.386048 3.422933 63.303288 160 155 152
10.386048 3.559393 63.303288 169 165 163
10.386048 3.695854 63.303288 196 192 192
10.363951 3.824161 63.168602 224 220 222
10.341947 3.951922 63.034485 233 229 232
10.363951 4.096501 63.168602 220 213 220
10.341947 4.223685 63.034485 197 188 198
10.341947 4.359566 63.034485 179 168 179
10.320035 4.485923 62.900936 166 155 166
10.341947 4.631328 63.034485 157 147 158
10.341947 4.767209 63.034485 151 142 150
10.341947 4.903090 63.034485 143 135 142
10.341947 5.038971 63.034485 130 124 128
10.341947 5.174852 63.034485 125 119 121
10.363951 5.322033 63.168602 138 131 131
10.341947 5.446615 63.034485 157 149 148
10.341947 5.582496 63.034485 164 153 151
10.363951 5.730544 63.168602 158 145 141
10.386048 5.879223 63.303288 155 140 138
10.386048 6.015683 63.303288 155 140 138
10.386048 6.152144 63.303288 151 135 136
10.408240 6.302042 63.438553 144 128 133
10.386048 6.425065 63.303288 131 115 123
10.363951 6.547565 63.168602 111 94 105
10.386048 6.697986 63.303288 93 77 89
10.363951 6.819905 63.168602 89 72 81
10.363951 6.956076 63.168602 103 86 91
10.363951 7.092246 63.168602 126 108 110
10.341947 7.213069 63.034485 142 123 122
10.341947 7.348950 63.034485 152 130 128
10.341947 7.484831 63.034485 151 127 124
10.320035 7.604567 62.900936 125 100 99
10.386048 7.789670 63.303288 96 70 71
10.408240 7.943067 63.438553 92 64 68
10.408240 8.079820 63.438553 98 69 74
10.408240 8.216572 63.438553 92 62 67
10.408240 8.353324 63.438553 81 50 52
10.408240 8.490076 63.438553 78 47 45
10.386048 8.608434 63.303288 95 64 56
10.408240 8.763580 63.438553 131 101 89
10.408240 8.900332 63.438553 161 133 118
10.386048 9.017816 63.303288 150 125 110
10.408240 9.173837 63.438553 109 87 73
10.363951 9.270969 63.168602 74 53 42
10.386048 9.427197 63.303288 58 39 31
10.430528 9.604615 63.574394 58 39 35
10.408240 9.720845 63.438553 63 44 43
10.452911 9.899904 63.710819 66 46 47
10.475390 10.058829 63.847832 63 43 44
10.475390 10.196464 63.847832 57 37 38
10.520640 10.378737 64.123634 59 39 40
10.520640 10.516967 64.123634 67 48 49
10.520640 10.655195 64.123634 73 56 56
10.475390 10.747001 63.847832 74 59 58
10.475390 10.884635 63.847832 74 59 58
10.452911 10.998617 63.710819 70 55 54
10.452911 11.135956 63.710819 59 45 44
10.452911 11.273295 63.710819 47 34 31
10.946195 13.243495 66.717400 39 31 29
10.824571 13.238567 65.976097 37 29 28
10.705619 13.233748 65.251083 34 27 26
10.658768 13.315876 64.965523 32 26 25
10.589253 13.368164 64.541832 30 24 24
10.612324 13.536722 64.682442 30 23 23
10.752885 15.128820 65.539169 27 18 18
10.705619 15.202979 65.251083 26 18 16
10.658768 15.276489 64.965523 25 18 15
7.972628 -8.986502 47.963234 17 14 11
10.751758 -8.912080 64.682442 24 19 18
10.728384 -8.753575 64.541832 25 20 19
10.681941 -8.577152 64.262428 26 21 20
10.567574 -7.526005 63.574394 29 22 23
10.500120 -7.341797 63.168602 30 23 24
10.522509 -7.220991 63.303288 31 23 24
10.522509 -7.084530 63.303288 33 25 26
10.477827 -6.918566 63.034485 35 26 27
10.500120 -6.797116 63.168602 37 28 29
10.477827 -6.646804 63.034485 39 29 31
10.455628 -6.497128 62.900936 41 30 32
10.455628 -6.361535 62.900936 43 31 33
10.411512 -6.199672 62.635532 45 31 32
10.433523 -6.077473 62.767956 48 33 33
10.411512 -5.929630 62.635532 50 33 33
10.411512 -5.794609 62.635532 52 33 32
10.389593 -5.647673 62.503666 56 36 35
10.367766 -5.501354 62.372356 59 39 38
10.367766 -5.366900 62.372356 62 41 42
10.367766 -5.232447 62.372356 65 44 45
10.367766 -5.097993 62.372356 65 43 46
10.389593 -4.973989 62.503666 63 40 44
10.389593 -4.839252 62.503666 58 34 39
10.389593 -4.704515 62.503666 55 30 36
10.346030 -4.550618 62.241596 56 29 38
10.411512 -4.444398 62.635532 60 30 43
10.433523 -4.318487 62.767956 64 32 48
10.433523 -4.183181 62.767956 74 42 59
10.411512 -4.039334 62.635532 116 86 102
10.389593 -3.896094 62.503666 176 152 165
10.389593 -3.761357 62.503666 181 166 175
10.389593 -3.626620 62.503666 117 106 113
10.389593 -3.491883 62.503666 54 47 54
10.389593 -3.357146 62.503666 38 38 42
10.367766 -3.215640 62.372356 44 48 51
10.367766 -3.081186 62.372356 47 53 55
10.346030 -2.940555 62.241596 50 57 58
10.302833 -2.794665 61.981716 96 101 101
10.324387 -2.666620 62.111385 181 185 184
10.367766 -2.543371 62.372356 240 241 240
10.389593 -2.413989 62.503666 252 251 251
10.389593 -2.279252 62.503666 236 237 237
10.389593 -2.144515 62.503666 198 201 201
10.389593 -2.009778 62.503666 161 165 165
10.389593 -1.875041 62.503666 167 173 174
10.433523 -1.747663 62.767956 212 216 218
10.433523 -1.612356 62.767956 229 232 235
10.477827 -1.483322 63.034485 206 208 212
10.567574 -1.358982 63.574394 193 194 197
10.522509 -1.216726 63.303288 210 209 212
10.522509 -1.080266 63.303288 233 231 233
10.500120 -0.941797 63.168602 248 246 244
10.433523 -0.800517 62.767956 251 249 246
10.433523 -0.665210 62.767956 239 236 233
10.433523 -0.529904 62.767956 211 206 201
10.411512 -0.393765 62.635532 196 190 187
10.389593 -0.258199 62.503666 207 202 201
10.367766 -0.123203 62.372356 212 207 208
10.324387 0.011204 62.111385 196 192 196
10.324387 0.145095 62.111385 169 164 172
10.367766 0.280159 62.372356 154 148 159
10.389593 0.415485 62.503666 177 171 183
10.433523 0.552549 62.767956 221 216 224
10.500120 0.692246 63.168602 244 240 245
10.477827 0.826657 63.034485 235 230 237
10.544992 0.968708 63.438553 201 192 204
10.567574 1.107828 63.574394 158 144 160
10.613025 1.250227 63.847832 128 112 128
10.635898 1.390852 63.985435 113 98 113
10.590250 1.522222 63.710819 106 93 105
10.500120 1.645437 63.168602 101 89 100
10.455628 1.774058 62.900936 107 96 105
10.411512 1.901594 62.635532 129 119 126
10.367766 2.028058 62.372356 153 143 148
10.367766 2.162512 62.372356 163 152 154
10.411512 2.306657 62.635532 173 162 160
10.433523 2.446840 62.767956 198 186 181
10.433523 2.582147 62.767956 215 202 194
10.411512 2.711720 62.635532 212 200 189
10.411512 2.846741 62.635532 210 200 187
10.500120 3.551820 63.168602 156 156 155
10.500120 3.687990 63.168602 172 170 173
10.477827 3.816041 63.034485 208 206 210
10.455628 3.943550 62.900936 234 232 236
10.500120 4.096501 63.168602 235 231 236
10.500120 4.232671 63.168602 218 212 219
10.477827 4.359566 63.034485 192 182 192
10.455628 4.485923 62.900936 162 151 161
10.455628 4.621516 62.900936 144 133 142
10.455628 4.757109 62.900936 140 130 138
10.477827 4.903090 63.034485 135 127 132
10.477827 5.038971 63.034485 125 117 120
10.455628 5.163889 62.900936 123 115 116
10.477827 5.310733 63.034485 137 129 127
10.477827 5.446615 63.034485 147 138 134
10.477827 5.582496 63.034485 146 136 129
10.477827 5.718377 63.034485 142 132 125
10.500120 5.866714 63.168602 142 130 124
10.522509 6.015683 63.303288 144 132 127
10.522509 6.152144 63.303288 160 148 146
10.544992 6.302042 63.438553 175 163 166
10.522509 6.425065 63.303288 153 140 148
10.500120 6.547565 63.168602 107 91 104
10.522509 6.697986 63.303288 77 61 75
10.500120 6.819905 63.168602 77 60 72
10.500120 6.956076 63.168602 100 83 91
10.500120 7.092246 63.168602 133 115 119
10.477827 7.213069 63.034485 151 131 131
10.477827 7.348950 63.034485 154 132 130
10.477827 7.484831 63.034485 155 131 130
10.455628 7.604567 62.900936 140 115 115
10.544992 7.806315 63.438553 106 80 82
10.567574 7.960076 63.574394 85 57 62
10.567574 8.097121 63.574394 83 54 61
10.567574 8.234166 63.574394 81 52 58
10.544992 8.353324 63.438553 76 46 51
10.567574 8.508256 63.574394 78 49 50
10.544992 8.626828 63.438553 97 67 64
10.567574 8.782346 63.574394 124 95 88
10.567574 8.919391 63.574394 141 113 103
10.544992 9.037085 63.438553 134 109 98
10.567574 9.193480 63.574394 111 89 77
10.500120 9.270969 63.168602 86 65 55
10.522509 9.427197 63.303288 69 49 41
10.567574 9.604615 63.574394 64 44 39
10.567574 9.741660 63.574394 66 46 43
10.613025 9.921195 63.847832 68 47 47
10.613025 10.058829 63.847832 65 45 46
10.613025 10.196464 63.847832 60 40 41
10.658870 10.378737 64.123634 58 37 38
10.658870 10.516967 64.123634 60 41 43
10.635898 10.632232 63.985435 65 47 49
10.590250 10.723939 63.710819 73 56 58
10.567574 10.838020 63.574394 82 66 68
10.567574 10.975065 63.574394 79 64 65
10.567574 11.112110 63.574394 64 49 50
10.544992 11.225119 63.438553 48 33 33
11.216038 13.393990 67.475548 40 31 29
11.090014 13.387316 66.717400 38 29 28
10.894165 13.292175 65.539169 35 27 26
10.822493 13.345078 65.107986 32 26 25
10.751758 13.397288 64.682442 31 24 24
10.846278 13.796386 65.251083 30 22 24
10.870169 14.249681 65.394806 32 25 25
10.846278 14.359023 65.251083 32 25 26
10.822493 14.467885 65.107986 32 25 26
10.798811 14.576270 64.965523 32 24 25
10.798811 14.716314 64.965523 30 22 22
10.822493 14.888937 65.107986 28 19 19
10.870169 15.095496 65.394806 27 18 17
10.846278 15.202979 65.251083 26 18 16
10.775233 15.243134 64.823669 27 19 16
8.076020 -8.986502 47.963234 17 14 11
10.914970 -9.071277 64.823669 23 19 17
10.891191 -8.912080 64.682442 24 20 18
10.867515 -8.753575 64.541832 24 20 18
10.820469 -8.577152 64.262428 25 21 19
10.636291 -7.341797 63.168602 29 23 24
10.546533 -6.874777 62.635532 33 25 27
10.591222 -6.768315 62.900936 35 26 28
10.591222 -6.632721 62.900936 37 27 29
10.546533 -6.469714 62.635532 39 28 30
10.546533 -6.334693 62.635532 42 29 31
10.502220 -6.173623 62.372356 46 31 31
10.524330 -6.051883 62.503666 51 33 33
10.524330 -5.917146 62.503666 56 37 34
10.502220 -5.770262 62.372356 62 41 38
10.502220 -5.635808 62.372356 68 47 43
10.502220 -5.501354 62.372356 71 49 46
10.502220 -5.366900 62.372356 69 48 46
10.480203 -5.221477 62.241596 67 46 45
10.502220 -5.097993 62.372356 63 43 44
10.524330 -4.973989 62.503666 59 39 41
10.524330 -4.839252 62.503666 54 33 37
10.524330 -4.704515 62.503666 52 30 35
10.502220 -4.560178 62.372356 53 29 38
10.546533 -4.444398 62.635532 57 30 43
10.568830 -4.318487 62.767956 60 31 46
10.568830 -4.183181 62.767956 67 36 53
10.546533 -4.039334 62.635532 106 76 92
10.546533 -3.904313 62.635532 176 153 164
10.524330 -3.761357 62.503666 202 189 196
10.524330 -3.626620 62.503666 137 127 132
10.524330 -3.491883 62.503666 57 50 55
10.524330 -3.357146 62.503666 34 34 38
10.502220 -3.215640 62.372356 43 47 50
10.502220 -3.081186 62.372356 45 51 54
10.480203 -2.940555 62.241596 50 57 59
10.436444 -2.794665 61.981716 105 109 110
10.458278 -2.666620 62.111385 194 198 197
10.502220 -2.543371 62.372356 246 247 247
10.524330 -2.413989 62.503666 254 254 253
10.524330 -2.279252 62.503666 249 249 247
10.524330 -2.144515 62.503666 229 229 228
10.524330 -2.009778 62.503666 189 192 191
10.546533 -1.878997 62.635532 168 172 173
10.568830 -1.747663 62.767956 193 197 199
10.568830 -1.612356 62.767956 218 221 225
10.613708 -1.483322 63.034485 207 209 216
10.704618 -1.358982 63.574394 189 189 197
10.658969 -1.216726 63.303288 192 189 195
10.636291 -1.077967 63.168602 212 207 212
10.636291 -0.941797 63.168602 236 233 234
10.568830 -0.800517 62.767956 247 246 244
10.568830 -0.665210 62.767956 230 227 225
10.568830 -0.529904 62.767956 194 189 184
10.524330 -0.392936 62.503666 187 182 177
10.502220 -0.257657 62.372356 219 215 211
10.502220 -0.123203 62.372356 240 237 235
10.458278 0.011204 62.111385 235 233 232
10.480203 0.145399 62.241596 213 210 214
10.524330 0.280748 62.503666 194 191 197
10.546533 0.416362 62.635532 205 202 209
10.591222 0.553719 62.900936 235 232 236
10.636291 0.692246 63.168602 249 248 250
10.636291 0.828416 63.168602 247 245 248
10.704618 0.970783 63.574394 229 222 230
10.727590 1.110205 63.710819 193 180 192
10.750659 1.250227 63.847832 153 138 150
