ply
format ascii 1.0
element vertex 1218
property float x
property float y
property float z
property uchar red
property uchar green
property uchar blue
end_header
9.231352 12.083885 60.221588 26 22 19
9.047827 11.970885 59.024338 26 22 19
8.241173 -9.247580 53.016502 28 25 20
8.153811 -9.036474 52.454491 29 26 21
8.153811 -8.810326 52.454491 31 27 24
8.139430 -8.681912 52.361980 33 29 27
8.082411 -8.509009 51.995171 36 32 32
11.566558 -10.252242 74.409126 38 31 29
11.566558 -10.091841 74.409126 37 30 29
11.480241 -9.857325 73.853836 40 32 31
11.451754 -9.674056 73.670578 40 32 31
11.451754 -9.515247 73.670578 41 33 31
11.451754 -9.356438 73.670578 42 34 34
11.480241 -9.220509 73.853836 44 36 35
11.480241 -9.061305 73.853836 44 37 36
11.451754 -8.880012 73.670578 43 36 35
11.423408 -8.699615 73.488220 42 35 35
11.423408 -8.541200 73.488220 42 35 34
11.423408 -8.382784 73.488220 42 35 35
11.395202 -8.204061 73.306770 43 36 35
11.451754 -8.085966 73.670578 42 36 35
11.480241 -7.946877 73.853836 42 35 34
11.480241 -7.787673 73.853836 41 34 34
11.480241 -7.628469 73.853836 42 35 35
11.451754 -7.450731 73.670578 47 40 38
11.451754 -7.291922 73.670578 51 44 42
11.451754 -7.133113 73.670578 51 44 42
11.508869 -7.009089 74.038010 50 42 41
11.537642 -6.866611 74.223106 50 41 41
11.566558 -6.723420 74.409126 50 41 40
11.654183 -6.612739 74.972832 51 41 40
11.683688 -6.467454 75.162636 52 42 40
11.683688 -6.305429 75.162636 53 42 40
11.624827 -6.112455 74.783989 53 41 40
11.654183 -5.966274 74.972832 55 41 39
11.654183 -5.804658 74.972832 56 41 39
11.624827 -5.628828 74.783989 57 41 38
11.595620 -5.453881 74.596085 59 42 37
11.595620 -5.293077 74.596085 59 41 36
11.537642 -5.106611 74.223106 60 41 37
11.395202 -4.885542 73.306770 66 47 43
11.508869 -4.774674 74.038010 78 59 56
11.423408 -4.580803 73.488220 87 68 67
11.423408 -4.422388 73.488220 87 69 71
11.423408 -4.263972 73.488220 87 69 74
11.395202 -4.095418 73.306770 86 71 78
11.395202 -3.937394 73.306770 75 63 72
11.423408 -3.788724 73.488220 66 56 66
11.423408 -3.630308 73.488220 79 72 81
11.423408 -3.471892 73.488220 108 98 109
11.423408 -3.313477 73.488220 126 113 125
11.480241 -3.170758 73.853836 137 121 132
11.395202 -2.989246 73.306770 142 123 132
11.451754 -2.845272 73.670578 126 108 113
11.508869 -2.699862 74.038010 105 89 90
11.508869 -2.540261 74.038010 106 94 92
11.566558 -2.392593 74.409126 152 144 142
11.566558 -2.232192 74.409126 201 197 196
11.624827 -2.082228 74.783989 180 175 175
11.683688 -1.930746 75.162636 111 104 105
11.683688 -1.768720 75.162636 79 67 72
11.654183 -1.602638 74.972832 107 93 97
11.683688 -1.444670 75.162636 149 133 133
11.683688 -1.282644 75.162636 166 151 146
11.683688 -1.120619 75.162636 164 153 141
11.683688 -0.958594 75.162636 169 164 150
11.713342 -0.798590 75.353409 178 180 168
11.713342 -0.636154 75.353409 171 176 170
11.713342 -0.473717 75.353409 154 159 165
11.654183 -0.309708 74.972832 145 148 164
11.654183 -0.148092 74.972832 163 162 181
11.624827 0.013490 74.783989 173 167 187
11.654183 0.175140 74.972832 144 133 157
11.654183 0.336756 74.972832 141 126 148
11.654183 0.498372 74.972832 170 150 165
11.713342 0.663339 75.353409 166 142 147
11.713342 0.825775 75.353409 149 121 116
11.713342 0.988212 75.353409 150 120 105
11.654183 1.144837 74.972832 156 125 103
11.683688 1.309761 75.162636 161 130 105
11.683688 1.471786 75.162636 161 132 105
11.683688 1.633811 75.162636 133 108 83
11.713342 1.800395 75.353409 87 66 46
11.713342 1.962831 75.353409 65 46 32
11.713342 2.125268 75.353409 72 57 47
11.743147 2.293525 75.545143 78 64 58
11.683688 2.443938 75.162636 69 55 53
11.654183 2.599382 74.972832 59 44 44
11.654183 2.760999 74.972832 55 38 39
11.925211 3.652081 76.716385 59 36 38
12.018376 3.847280 77.315735 57 34 37
11.987160 4.003520 77.114914 52 30 34
11.987160 4.169755 77.114914 51 29 35
11.987160 4.335988 77.114914 63 42 49
12.081300 4.537580 77.720528 80 59 69
12.144886 4.729883 78.129585 79 56 68
12.081300 4.872658 77.720528 63 40 52
12.144886 5.066725 78.129585 56 33 42
12.176930 5.248959 78.335732 55 33 39
12.144886 5.403567 78.129585 55 33 37
12.209145 5.601470 78.542969 53 33 34
12.176930 5.755555 78.335732 51 32 31
12.274087 5.971690 78.960747 47 30 28
12.306818 6.158281 79.171310 42 27 25
12.339724 6.345870 79.383003 39 25 22
12.241529 6.465134 78.751305 36 24 21
12.209145 6.617342 78.542969 34 23 21
12.274087 6.822754 78.960747 33 22 21
12.209145 6.955967 78.542969 32 22 21
12.144886 7.087778 78.129585 30 21 21
13.036883 15.201570 83.867912 24 21 18
12.927329 15.253097 83.163147 24 21 17
12.927329 15.432368 83.163147 24 21 17
9.323347 12.035062 59.978268 25 22 19
9.138726 11.923476 58.790577 26 22 19
8.296200 -9.068519 52.640499 28 26 20
8.266885 -8.923400 52.454491 29 27 22
8.296200 -8.841568 52.640499 30 28 24
8.266885 -8.697252 52.454491 33 29 27
11.697641 -11.346611 74.223106 38 34 35
11.726959 -10.412642 74.409126 39 33 31
11.756424 -10.278002 74.596085 35 29 28
11.726959 -10.091841 74.409126 36 30 29
11.668470 -9.881907 74.038010 38 31 31
11.610562 -9.674056 73.670578 39 31 31
11.581823 -9.491694 73.488220 39 31 31
11.581823 -9.333279 73.488220 42 34 34
11.639444 -9.220509 73.853836 45 37 38
11.610562 -9.038820 73.670578 46 39 39
11.581823 -8.858031 73.488220 46 38 38
11.553226 -8.678135 73.306770 44 37 37
11.553226 -8.520110 73.306770 43 36 35
11.553226 -8.362085 73.306770 41 36 35
11.553226 -8.204061 73.306770 41 35 35
11.581823 -8.065951 73.488220 41 35 35
11.610562 -7.927158 73.670578 40 35 34
11.610562 -7.768349 73.670578 39 34 33
11.639444 -7.628469 73.853836 40 33 32
11.610562 -7.450731 73.670578 44 37 36
11.639444 -7.310061 73.853836 50 42 41
11.610562 -7.133113 73.670578 51 43 42
11.668470 -7.009089 74.038010 49 41 41
11.697641 -6.866611 74.223106 48 40 39
11.726959 -6.723420 74.409126 49 39 39
11.786036 -6.596082 74.783989 49 39 38
11.845713 -6.467454 75.162636 50 40 38
11.726959 -5.921415 74.409126 53 39 37
11.726959 -5.761014 74.409126 53 38 37
11.697641 -5.586611 74.223106 54 39 36
11.668470 -5.413079 74.038010 56 39 36
11.697641 -5.266611 74.223106 58 40 35
11.668470 -5.093877 74.038010 61 41 36
11.553226 -4.885542 73.306770 66 46 40
11.639444 -4.762797 73.853836 78 56 52
11.610562 -4.592170 73.670578 85 63 60
11.581823 -4.422388 73.488220 83 60 59
11.581823 -4.263972 73.488220 79 57 57
11.581823 -4.105556 73.488220 75 56 57
11.581823 -3.947140 73.488220 68 53 54
11.610562 -3.798126 73.670578 71 59 60
11.581823 -3.630308 73.488220 86 78 79
11.581823 -3.471892 73.488220 101 93 94
11.610562 -3.321699 73.670578 108 97 99
11.639444 -3.170758 73.853836 118 105 105
11.553226 -2.989246 73.306770 127 111 107
11.610562 -2.845272 73.670578 117 100 90
11.668470 -2.699862 74.038010 103 87 71
11.668470 -2.540261 74.038010 119 103 83
11.697641 -2.386611 74.223106 162 150 129
11.697641 -2.226611 74.223106 201 192 172
11.756424 -2.076996 74.596085 202 193 178
11.815800 -1.925870 74.972832 159 149 138
11.845713 -1.768720 75.162636 120 106 102
11.815800 -1.602638 74.972832 126 110 110
11.845713 -1.444670 75.162636 148 130 133
11.845713 -1.282644 75.162636 153 135 137
11.845713 -1.120619 75.162636 150 135 133
11.845713 -0.958594 75.162636 156 145 142
11.875778 -0.798590 75.353409 162 156 154
11.875778 -0.636154 75.353409 154 150 154
11.875778 -0.473717 75.353409 141 138 151
11.815800 -0.309708 74.972832 136 133 153
11.815800 -0.148092 74.972832 158 154 175
11.786036 0.013490 74.783989 168 162 184
11.845713 0.175583 75.162636 145 134 161
11.815800 0.336756 74.972832 145 130 155
11.815800 0.498372 74.972832 163 144 162
11.875778 0.663339 75.353409 149 127 137
11.905996 0.827877 75.545143 129 104 104
11.875778 0.988212 75.353409 132 106 97
11.845713 1.147735 75.162636 146 118 103
11.875778 1.313085 75.353409 158 129 110
11.845713 1.471786 75.162636 160 132 111
11.845713 1.633811 75.162636 133 109 88
11.875778 1.800395 75.353409 88 67 49
11.845713 1.957862 75.162636 67 49 36
11.845713 2.119887 75.162636 81 65 56
11.905996 2.293525 75.545143 91 76 72
11.845713 2.443938 75.162636 80 66 65
11.815800 2.599382 74.972832 65 50 50
11.845713 2.767988 75.162636 58 40 42
11.875778 2.937450 75.353409 57 38 39
12.059424 3.312772 76.518669 59 37 38
12.121908 3.495739 76.915138 60 37 38
12.121908 3.661543 76.915138 61 37 39
12.185043 3.847280 77.315735 58 35 39
12.153394 4.003520 77.114914 53 30 35
12.153394 4.169755 77.114914 49 28 35
12.185043 4.347280 77.315735 62 40 50
12.248839 4.537580 77.720528 86 63 76
12.313307 4.729883 78.129585 89 64 79
12.280989 4.885448 77.924522 70 42 57
12.313307 5.066725 78.129585 59 30 42
12.313307 5.235146 78.129585 61 32 41
12.313307 5.403567 78.129585 64 36 42
12.378457 5.601470 78.542969 63 38 41
12.345796 5.755555 78.335732 60 38 39
12.411291 5.955850 78.751305 55 36 35
12.444300 6.141903 78.960747 46 30 29
12.444300 6.312116 78.960747 40 26 25
12.378457 6.448030 78.542969 36 24 23
12.345796 6.599883 78.335732 35 23 23
12.378457 6.786654 78.542969 33 23 23
12.378457 6.955967 78.542969 32 22 23
12.280989 7.069174 77.924522 30 22 22
13.180441 15.158748 83.631668 24 21 18
13.069990 15.210490 82.930847 24 21 18
12.854551 15.311416 81.563850 24 21 17
9.376867 11.938588 59.497478 25 21 19
9.210741 11.853062 58.443390 25 22 19
8.895545 11.569117 56.443428 25 22 19
8.469744 -9.019008 53.016502 28 27 21
8.454646 -8.888849 52.922001 29 28 23
8.409675 -8.728093 52.640499 31 29 26
8.350451 -8.553951 52.269794 33 30 28
11.828072 -11.797118 74.038010 35 32 32
11.857641 -11.666612 74.223106 36 33 34
11.857641 -11.506611 74.223106 36 33 34
11.917228 -10.278002 74.596085 35 30 29
11.887360 -10.091841 74.409126 36 30 30
11.798649 -9.857325 73.853836 37 31 31
11.769371 -9.674056 73.670578 36 30 30
11.740239 -9.491694 73.488220 37 30 30
11.740239 -9.333279 73.488220 41 33 34
11.769371 -9.197629 73.670578 45 36 38
11.740239 -9.016447 73.488220 46 39 40
11.740239 -8.858031 73.488220 46 39 40
11.740239 -8.699615 73.488220 45 38 39
11.682405 -8.499125 73.126213 42 37 37
11.682405 -8.341489 73.126213 40 36 36
11.711251 -8.204061 73.306770 39 35 34
11.711251 -8.046036 73.306770 39 34 34
11.769371 -7.927158 73.670578 39 34 33
11.798649 -7.787673 73.853836 38 33 32
11.798649 -7.628469 73.853836 38 32 31
11.798649 -7.469265 73.853836 41 34 33
11.798649 -7.310061 73.853836 47 38 38
11.769371 -7.133113 73.670578 49 41 41
11.828072 -7.009089 74.038010 48 40 40
11.857641 -6.866611 74.223106 47 37 37
11.857641 -6.706611 74.223106 47 37 37
11.887360 -6.563019 74.409126 47 37 36
11.769371 -5.703833 73.670578 51 36 35
11.740239 -5.531298 73.488220 52 37 34
11.769371 -5.386215 73.670578 53 37 34
11.798649 -5.240409 73.853836 56 39 34
11.798649 -5.081205 73.853836 59 40 34
11.711251 -4.885542 73.306770 65 43 38
11.798649 -4.762797 73.853836 76 52 48
11.740239 -4.580803 73.488220 82 58 55
11.740239 -4.422388 73.488220 79 54 50
11.740239 -4.263972 73.488220 76 51 48
11.740239 -4.105556 73.488220 73 51 47
11.769371 -3.956934 73.670578 69 51 48
11.769371 -3.798126 73.670578 77 64 60
11.740239 -3.630308 73.488220 90 81 76
11.740239 -3.471892 73.488220 96 89 85
11.769371 -3.321699 73.670578 98 89 85
11.828072 -3.178665 74.038010 106 95 89
11.740239 -2.996645 73.488220 118 103 92
11.798649 -2.852350 73.853836 118 101 84
11.828072 -2.699862 74.038010 120 101 76
11.828072 -2.540261 74.038010 136 117 85
11.887360 -2.392593 74.409126 163 146 110
11.857641 -2.226611 74.223106 197 182 147
11.917228 -2.076996 74.596085 223 212 183
11.977416 -1.925870 74.972832 202 192 171
12.007738 -1.768720 75.162636 157 143 131
11.977416 -1.602638 74.972832 146 130 124
12.007738 -1.444670 75.162636 153 134 135
12.007738 -1.282644 75.162636 147 128 132
12.038215 -1.123463 75.353409 142 124 127
12.038215 -0.961027 75.353409 149 133 135
12.068847 -0.800622 75.545143 150 137 139
12.068847 -0.637772 75.545143 141 130 137
12.068847 -0.474922 75.545143 134 124 137
12.007738 -0.310492 75.162636 133 124 143
11.977416 -0.148092 74.972832 146 137 160
11.947246 0.013490 74.783989 152 143 168
12.007738 0.175583 75.162636 141 130 155
12.007738 0.337609 75.162636 137 123 146
11.977416 0.498372 74.972832 136 121 137
12.038215 0.663339 75.353409 123 105 115
12.038215 0.825775 75.353409 110 90 92
12.007738 0.985710 75.162636 117 95 90
12.007738 1.147735 75.162636 139 114 105
12.007738 1.309761 75.162636 159 133 119
12.007738 1.471786 75.162636 164 139 121
12.007738 1.633811 75.162636 138 114 96
12.038215 1.800395 75.353409 89 69 53
12.007738 1.957862 75.162636 68 50 38
12.007738 2.119887 75.162636 88 72 64
12.068847 2.293525 75.545143 106 90 86
12.007738 2.443938 75.162636 95 79 78
12.007738 2.605963 75.162636 74 58 58
12.007738 2.767988 75.162636 62 44 46
12.068847 2.944925 75.545143 59 39 41
12.224373 3.312772 76.518669 60 38 39
12.287711 3.495739 76.915138 62 38 40
12.287711 3.661543 76.915138 63 39 42
12.351710 3.847280 77.315735 61 38 41
12.287711 3.993149 76.915138 54 33 38
12.287711 4.158952 76.915138 50 28 36
12.351710 4.347280 77.315735 57 35 46
12.383960 4.525733 77.517601 76 51 65
12.481728 4.729883 78.129585 83 55 70
12.448968 4.885448 77.924522 72 40 55
12.481728 5.066725 78.129585 64 30 43
12.481728 5.235146 78.129585 67 33 44
12.481728 5.403567 78.129585 70 38 46
12.547769 5.601470 78.542969 75 45 52
12.514662 5.755555 78.335732 82 56 60
12.581052 5.955850 78.751305 75 53 56
12.581052 6.125611 78.751305 54 36 38
12.614512 6.312116 78.960747 40 26 27
12.547769 6.448030 78.542969 36 24 24
12.481728 6.582514 78.129585 35 24 24
12.547769 6.786654 78.542969 33 23 24
12.514662 6.937613 78.335732 32 23 24
12.514662 7.106479 78.335732 30 22 23
13.551590 15.192444 84.826408 23 21 19
13.360723 15.158748 83.631668 24 21 18
13.211857 15.168121 82.699837 24 21 18
13.102366 15.219214 82.014481 24 21 18
12.819072 15.063123 80.241196 23 21 17
12.448968 15.300145 77.924522 23 21 17
9.448320 11.867242 59.141918 25 21 19
9.263783 11.760460 57.986801 25 22 19
8.966081 11.503508 56.123333 26 22 19
8.799734 11.408823 55.082081 26 22 19
8.584030 -8.904722 53.016502 28 27 22
8.523150 -8.728093 52.640499 29 28 24
8.463128 -8.553951 52.269794 31 29 27
12.017642 -11.826612 74.223106 34 31 31
12.047761 -11.695851 74.409126 35 32 33
11.898655 -9.650110 73.488220 34 28 28
11.869276 -9.468258 73.306770 35 28 29
11.869276 -9.310233 73.306770 40 31 33
11.928181 -9.197629 73.670578 43 35 37
11.898655 -9.016447 73.488220 46 37 39
11.928181 -8.880012 73.670578 46 38 40
11.928181 -8.721202 73.670578 44 38 38
11.840041 -8.499125 73.126213 41 37 37
11.869276 -8.362085 73.306770 39 36 35
11.898655 -8.224368 73.488220 38 34 33
11.898655 -8.065951 73.488220 38 34 32
11.928181 -7.927158 73.670578 38 34 32
11.957852 -7.787673 73.853836 37 32 31
11.957852 -7.628469 73.853836 37 31 30
11.957852 -7.469265 73.853836 39 32 31
11.957852 -7.310061 73.853836 44 35 35
11.928181 -7.133113 73.670578 46 37 37
11.957852 -6.991653 73.853836 47 37 38
12.017642 -6.866611 74.223106 46 36 36
11.869276 -5.359616 73.306770 51 35 33
11.928181 -5.227406 73.670578 54 37 34
11.928181 -5.068597 73.670578 58 38 35
11.869276 -4.885542 73.306770 63 42 37
11.928181 -4.750979 73.670578 71 48 44
11.898655 -4.580803 73.488220 77 52 48
11.898655 -4.422388 73.488220 75 49 45
11.928181 -4.274552 73.670578 74 48 43
11.928181 -4.115743 73.670578 72 49 43
11.957852 -3.966777 73.853836 70 51 44
11.987673 -3.817069 74.038010 77 62 55
11.957852 -3.648370 73.853836 87 77 71
11.928181 -3.480508 73.670578 94 87 81
11.957852 -3.329962 73.853836 95 88 82
12.017642 -3.186611 74.223106 97 89 80
11.957852 -3.011554 73.853836 109 97 84
11.957852 -2.852350 73.853836 117 100 81
12.017642 -2.706611 74.223106 122 101 73
11.987673 -2.540261 74.038010 137 116 80
12.047761 -2.392593 74.409126 170 149 106
12.017642 -2.226611 74.223106 209 191 146
12.078032 -2.076996 74.596085 236 224 187
12.139032 -1.925870 74.972832 213 204 179
12.139032 -1.764254 74.972832 164 150 131
12.108455 -1.598601 74.783989 156 139 126
12.139032 -1.441022 74.972832 167 149 146
12.139032 -1.279405 74.972832 155 136 137
12.169764 -1.120619 75.162636 143 123 125
12.169764 -0.958594 75.162636 143 123 125
12.231696 -0.800622 75.545143 138 119 121
12.231696 -0.637772 75.545143 133 115 120
12.231696 -0.474922 75.545143 134 118 126
12.169764 -0.310492 75.162636 132 117 130
12.139032 -0.148092 74.972832 134 120 138
12.108455 0.013490 74.783989 138 126 146
12.169764 0.175583 75.162636 135 122 141
12.169764 0.337609 75.162636 124 111 127
12.139032 0.498372 74.972832 111 97 110
12.200651 0.663339 75.353409 102 87 95
12.200651 0.825775 75.353409 100 83 86
12.169764 0.985710 75.162636 112 92 91
12.169764 1.147735 75.162636 136 113 108
12.200651 1.313085 75.353409 159 135 125
12.169764 1.471786 75.162636 167 143 129
12.200651 1.637958 75.353409 142 118 104
12.200651 1.800395 75.353409 92 70 57
12.200651 1.962831 75.353409 69 50 39
12.200651 2.125268 75.353409 91 73 65
12.231696 2.293525 75.545143 112 95 90
12.200651 2.450141 75.353409 103 86 84
12.200651 2.612577 75.353409 83 65 65
12.231696 2.782075 75.545143 69 51 52
12.262899 2.952437 75.737862 63 43 45
12.325787 3.131681 76.126259 59 38 40
12.421335 3.321332 76.716385 60 38 39
12.485862 3.504819 77.114914 63 41 42
12.453515 3.661543 76.915138 67 45 47
12.485862 3.837287 77.114914 65 44 46
12.453515 3.993149 76.915138 58 37 41
12.453515 4.158952 76.915138 52 31 38
12.485862 4.335988 77.114914 55 32 42
12.518376 4.513947 77.315735 64 38 50
12.616946 4.717468 77.924522 70 40 54
12.616946 4.885448 77.924522 68 35 48
12.616946 5.053426 77.924522 67 30 43
12.616946 5.221406 77.924522 70 32 43
12.616946 5.389384 77.924522 71 34 44
12.683527 5.586690 78.335732 82 48 57
12.650149 5.740409 78.129585 109 80 86
12.717081 5.940094 78.542969 111 88 92
12.750813 6.125611 78.751305 75 56 59
12.750813 6.295372 78.751305 44 29 31
12.683527 6.431017 78.335732 35 24 24
12.650149 6.582514 78.129585 34 24 24
12.683527 6.768748 78.335732 33 24 24
12.683527 6.937613 78.335732 32 23 24
12.683527 7.106479 78.335732 31 22 23
12.583918 7.218208 77.720528 29 21 22
13.773801 14.869213 85.069466 24 21 21
13.541004 14.798184 83.631668 24 21 20
13.617724 15.063330 84.105499 23 21 19
13.541004 15.158748 83.631668 23 21 19
13.427532 15.210490 82.930847 23 21 18
13.279162 15.219214 82.014481 23 21 18
12.922195 14.982139 79.809792 23 20 17
12.650149 15.003567 78.129585 23 20 16
12.717081 15.252263 78.542969 23 20 17
12.518376 15.180614 77.315735 23 21 17
9.316001 11.669293 57.537292 25 21 17
9.069919 11.481803 56.017437 26 21 17
8.918472 11.408823 55.082081 26 21 17
8.713876 -8.920652 53.111347 28 26 21
8.621339 -8.712646 52.547333 28 27 22
12.027300 -9.468258 73.306770 35 28 29
12.117056 -9.220509 73.853836 40 33 34
12.086989 -9.038820 73.670578 42 35 36
12.117056 -8.902101 73.853836 43 36 38
12.117056 -8.742897 73.853836 42 37 37
12.027300 -8.520110 73.306770 41 36 36
12.027300 -8.362085 73.306770 39 36 35
12.057071 -8.224368 73.488220 38 34 33
12.027300 -8.046036 73.306770 37 33 32
12.057071 -7.907536 73.488220 37 32 31
12.117056 -7.787673 73.853836 37 31 30
12.117056 -7.628469 73.853836 37 30 30
12.086989 -7.450731 73.670578 39 31 31
12.117056 -7.310061 73.853836 42 33 33
12.057071 -7.115457 73.488220 44 35 35
12.086989 -6.974304 73.670578 45 35 35
12.147273 -6.849488 74.038010 45 35 35
12.086989 -5.227406 73.670578 53 36 34
12.086989 -5.068597 73.670578 56 38 35
12.027300 -4.885542 73.306770 60 40 37
12.086989 -4.750979 73.670578 66 44 40
12.086989 -4.592170 73.670578 71 46 43
12.057071 -4.422388 73.488220 72 46 42
12.086989 -4.274552 73.670578 72 46 42
12.086989 -4.115743 73.670578 70 47 40
12.147273 -3.976670 74.038010 67 48 40
12.177642 -3.826611 74.223106 72 57 49
12.117056 -3.648370 73.853836 82 73 65
12.117056 -3.489166 73.853836 92 86 79
12.177642 -3.346611 74.223106 91 86 80
12.208162 -3.194598 74.409126 89 82 74
12.147273 -3.019064 74.038010 102 91 80
12.147273 -2.859463 74.038010 114 100 82
12.208162 -2.713395 74.409126 115 95 68
12.208162 -2.552994 74.409126 130 108 72
12.238835 -2.398604 74.596085 178 154 111
12.208162 -2.232192 74.409126 221 201 154
12.238835 -2.076996 74.596085 238 225 185
12.300648 -1.925870 74.972832 208 198 168
12.331789 -1.768720 75.162636 156 140 116
12.269664 -1.598601 74.783989 153 134 116
12.269664 -1.437392 74.783989 175 156 147
12.300648 -1.279405 74.972832 166 146 143
12.331789 -1.120619 75.162636 148 125 124
12.300648 -0.956173 74.972832 137 114 114
12.363088 -0.798590 75.353409 127 104 103
12.363088 -0.636154 75.353409 125 104 103
12.394547 -0.474922 75.545143 129 110 110
12.331789 -0.310492 75.162636 124 107 111
12.300648 -0.148092 74.972832 121 107 115
12.269664 0.013490 74.783989 129 115 125
12.331789 0.175583 75.162636 129 116 126
12.331789 0.337609 75.162636 114 101 111
12.331789 0.499634 75.162636 100 85 93
12.394547 0.665027 75.545143 97 82 88
12.394547 0.827877 75.545143 105 88 92
12.363088 0.988212 75.353409 119 99 100
12.363088 1.150648 75.353409 138 115 113
12.363088 1.313085 75.353409 157 134 128
12.394547 1.479276 75.545143 166 143 133
12.394547 1.642126 75.545143 140 117 106
12.394547 1.804976 75.545143 90 68 57
12.394547 1.967826 75.545143 69 48 39
12.394547 2.130676 75.545143 88 69 61
12.426165 2.299376 75.737862 107 88 83
12.363088 2.450141 75.353409 102 84 81
12.394547 2.619225 75.545143 89 71 69
12.394547 2.782075 75.545143 79 60 59
12.426165 2.952437 75.737862 68 49 50
12.489889 3.131681 76.126259 60 40 41
12.554270 3.312772 76.518669 58 38 38
12.586710 3.486707 76.716385 63 42 43
12.586710 3.652081 76.716385 69 48 49
12.619318 3.827346 76.915138 69 47 49
12.586710 3.982831 76.716385 62 40 44
12.586710 4.148205 76.716385 56 34 40
12.619318 4.324755 76.915138 56 33 41
12.652095 4.502222 77.114914 59 33 43
12.751457 4.705119 77.720528 63 33 44
12.751457 4.872658 77.720528 66 31 44
12.784925 5.053426 77.924522 68 31 43
12.751457 5.207737 77.720528 70 31 42
12.784925 5.389384 77.924522 67 29 40
12.886394 5.601470 78.542969 78 43 52
12.852392 5.755555 78.335732 118 88 95
12.920574 5.955850 78.751305 139 115 119
12.920574 6.125611 78.751305 102 82 84
12.920574 6.295372 78.751305 53 39 39
12.886394 6.448030 78.542969 35 24 24
12.852392 6.599883 78.335732 33 24 24
12.886394 6.786654 78.542969 32 24 24
12.852392 6.937613 78.335732 31 23 23
12.886394 7.125279 78.542969 30 23 23
12.818570 7.256198 78.129585 30 22 23
13.997290 14.911941 85.313911 24 20 21
13.760047 14.839987 83.867912 24 21 20
13.799027 15.063330 84.105499 23 21 19
13.760047 15.201570 83.867912 23 21 19
13.644417 15.253097 83.163147 23 21 18
13.530713 15.303765 82.470116 22 20 18
13.236567 15.144988 80.677292 22 20 18
12.989485 15.032948 79.171310 23 20 18
12.852392 15.212020 78.335732 24 20 17
9.173365 11.460179 55.911945 26 20 16
9.054008 11.430029 55.184464 26 21 16
12.276260 -9.220509 73.853836 38 31 32
12.245798 -9.038820 73.670578 39 33 34
12.276260 -8.902101 73.853836 41 34 35
12.306874 -8.764700 74.038010 41 35 36
12.185325 -8.520110 73.306770 40 36 36
12.185325 -8.362085 73.306770 39 36 35
12.245798 -8.244776 73.670578 38 34 34
12.185325 -8.046036 73.306770 38 33 33
12.215487 -7.907536 73.488220 38 32 32
12.276260 -7.787673 73.853836 38 31 31
12.276260 -7.628469 73.853836 38 31 31
12.245798 -7.450731 73.670578 39 31 31
12.276260 -7.310061 73.853836 40 31 32
12.215487 -7.115457 73.488220 43 33 33
12.215487 -6.957041 73.488220 44 34 33
12.276260 -5.240409 73.853836 52 35 35
12.276260 -5.081205 73.853836 54 37 36
12.215487 -4.897635 73.488220 57 39 36
12.245798 -4.750979 73.670578 61 41 38
12.306874 -4.615074 74.038010 65 43 39
12.215487 -4.422388 73.488220 69 44 40
12.245798 -4.274552 73.670578 71 47 42
12.245798 -4.115743 73.670578 68 45 39
12.337642 -3.986611 74.223106 64 44 38
12.337642 -3.826611 74.223106 67 53 46
12.276260 -3.648370 73.853836 76 68 62
12.276260 -3.489166 73.853836 88 83 78
12.337642 -3.346611 74.223106 87 83 78
12.399640 -3.202625 74.596085 81 76 70
12.368563 -3.034197 74.409126 96 88 79
12.337642 -2.866611 74.223106 114 101 87
12.399640 -2.720212 74.596085 112 94 71
12.368563 -2.552994 74.409126 126 104 74
12.430873 -2.404646 74.783989 173 149 111
12.368563 -2.232192 74.409126 214 191 150
12.399640 -2.076996 74.596085 229 213 176
12.462264 -1.925870 74.972832 205 190 160
12.493814 -1.768720 75.162636 151 130 106
12.430873 -1.598601 74.783989 137 114 96
12.430873 -1.437392 74.783989 157 134 125
12.430873 -1.276183 74.783989 161 137 133
12.493814 -1.120619 75.162636 149 124 121
12.462264 -0.956173 74.972832 135 109 106
12.525524 -0.798590 75.353409 122 97 93
12.525524 -0.636154 75.353409 118 96 91
12.557396 -0.474922 75.545143 117 97 92
12.493814 -0.310492 75.162636 109 92 90
12.462264 -0.148092 74.972832 110 95 96
12.430873 0.013490 74.783989 122 109 112
12.493814 0.175583 75.162636 126 113 118
12.493814 0.337609 75.162636 115 101 106
12.493814 0.499634 75.162636 104 89 93
12.557396 0.665027 75.545143 106 90 94
12.557396 0.827877 75.545143 118 99 103
12.525524 0.988212 75.353409 131 110 112
12.525524 1.150648 75.353409 146 123 123
12.557396 1.316426 75.545143 163 140 136
12.557396 1.479276 75.545143 166 142 135
12.557396 1.642126 75.545143 131 107 99
12.589430 1.809580 75.737862 83 60 51
12.557396 1.967826 75.545143 68 45 37
12.589430 2.136111 75.737862 84 63 55
12.621628 2.305257 75.931564 98 77 70
12.557396 2.456375 75.545143 98 77 72
12.589430 2.625907 75.737862 93 74 70
12.589430 2.789172 75.737862 88 69 66
12.589430 2.952437 75.737862 76 57 56
12.653992 3.131681 76.126259 62 43 43
12.686521 3.304256 76.321960 57 38 39
12.752085 3.486707 76.716385 61 41 43
12.719218 3.642669 76.518669 67 46 48
12.752085 3.817456 76.716385 67 46 49
12.719218 3.972566 76.518669 64 43 46
12.719218 4.137514 76.518669 60 39 42
12.785121 4.324755 76.915138 59 35 41
12.752085 4.478955 76.716385 59 34 41
12.885265 4.692834 77.517601 62 33 41
12.885265 4.859936 77.517601 64 33 41
12.918997 5.040197 77.720528 67 32 42
12.918997 5.207737 77.720528 69 32 42
12.952905 5.389384 77.924522 67 30 40
13.021257 5.586690 78.335732 72 37 46
13.021257 5.755555 78.335732 102 71 78
13.055705 5.940094 78.542969 132 106 111
13.055705 6.109406 78.542969 119 98 101
13.055705 6.278718 78.542969 76 60 60
13.055705 6.448030 78.542969 44 32 31
13.021257 6.599883 78.335732 33 24 23
13.055705 6.786654 78.542969 31 23 22
13.021257 6.937613 78.335732 30 23 22
13.021257 7.106479 78.335732 30 23 22
12.952905 7.237154 77.924522 30 23 22
13.980330 14.882027 84.105499 23 20 20
13.980330 15.063330 84.105499 22 20 19
13.980330 15.244633 84.105499 22 20 19
13.901568 15.339029 83.631668 22 20 18
13.746675 15.346395 82.699837 22 20 18
13.520703 15.269467 81.340393 23 20 19
13.195338 15.073143 79.383003 23 19 18
13.055705 15.252263 78.542969 24 20 18
12.435464 -9.220509 73.853836 36 30 31
12.404607 -9.038820 73.670578 37 31 32
12.435464 -8.902101 73.853836 38 33 34
12.466475 -8.764700 74.038010 39 35 35
12.343349 -8.520110 73.306770 41 36 36
12.343349 -8.362085 73.306770 41 37 37
12.404607 -8.244776 73.670578 42 36 37
12.373902 -8.065951 73.488220 42 36 37
12.373902 -7.907536 73.488220 41 34 35
12.466475 -7.807094 74.038010 40 33 33
12.466475 -7.647492 74.038010 40 32 32
12.404607 -7.450731 73.670578 40 32 32
12.435464 -7.310061 73.853836 41 32 32
12.404607 -7.133113 73.670578 42 33 32
12.466475 -5.093877 74.038010 53 37 36
12.404607 -4.909788 73.670578 55 38 36
12.435464 -4.762797 73.853836 57 39 37
12.497642 -4.626611 74.223106 60 40 38
12.404607 -4.433361 73.670578 66 44 41
12.435464 -4.285185 73.853836 71 47 44
12.435464 -4.125981 73.853836 66 44 40
12.528964 -3.996603 74.409126 61 43 38
12.528964 -3.836202 74.409126 64 51 46
12.435464 -3.648370 73.853836 73 64 60
12.466475 -3.497867 74.038010 82 78 74
12.528964 -3.354999 74.409126 80 76 74
12.560444 -3.202625 74.596085 76 72 69
12.560444 -3.041821 74.596085 98 91 86
12.497642 -2.866611 74.223106 120 108 99
12.592082 -2.727064 74.783989 115 97 82
12.560444 -2.559408 74.596085 124 102 80
12.592082 -2.404646 74.783989 161 136 108
12.528964 -2.232192 74.409126 194 169 137
12.592082 -2.082228 74.783989 219 199 170
12.655840 -1.930746 75.162636 206 187 165
12.655840 -1.768720 75.162636 149 126 108
12.592082 -1.598601 74.783989 119 91 77
12.592082 -1.437392 74.783989 127 100 93
12.623880 -1.279405 74.972832 139 111 108
12.655840 -1.120619 75.162636 139 111 107
12.655840 -0.958594 75.162636 129 102 97
12.720246 -0.800622 75.545143 119 94 88
12.720246 -0.637772 75.545143 112 90 82
12.785311 -0.477352 75.931564 104 87 79
12.687961 -0.311281 75.353409 98 82 77
12.655840 -0.148467 75.162636 103 88 86
12.623880 0.013524 74.972832 118 104 104
12.687961 0.176029 75.353409 125 111 113
12.655840 0.337609 75.162636 122 107 109
12.687961 0.500902 75.353409 119 102 106
12.720246 0.665027 75.545143 122 103 107
12.720246 0.827877 75.545143 127 107 111
12.687961 0.988212 75.353409 136 115 118
12.720246 1.153576 75.545143 154 131 133
12.720246 1.316426 75.545143 175 150 150
12.720246 1.479276 75.545143 166 141 138
12.720246 1.642126 75.545143 120 95 90
12.752695 1.809580 75.737862 75 51 44
12.720246 1.967826 75.545143 67 44 36
12.785311 2.141574 75.931564 86 63 55
12.785311 2.305257 75.931564 97 74 67
12.720246 2.456375 75.545143 95 74 67
12.752695 2.625907 75.737862 95 75 69
12.752695 2.789172 75.737862 98 79 73
12.752695 2.952437 75.737862 90 71 68
12.818094 3.131681 76.126259 70 51 50
12.818094 3.295783 76.126259 58 39 40
12.884167 3.477720 76.518669 60 40 43
12.884167 3.642669 76.518669 66 45 49
12.884167 3.807617 76.518669 69 48 52
12.851046 3.962353 76.321960 69 47 51
12.884167 4.137514 76.518669 66 43 47
12.917459 4.313580 76.716385 63 39 44
12.917459 4.478955 76.716385 61 37 42
13.018376 4.680613 77.315735 63 36 42
13.018376 4.847280 77.315735 65 36 42
13.018376 5.013947 77.315735 67 35 42
13.086535 5.207737 77.720528 69 34 42
13.120884 5.389384 77.924522 69 33 42
13.155413 5.571988 78.129585 69 36 43
13.155413 5.740409 78.129585 81 50 56
13.225018 5.940094 78.542969 109 82 85
13.225018 6.109406 78.542969 126 104 105
13.190123 6.262152 78.335732 101 84 83
13.190123 6.431017 78.335732 57 45 42
13.155413 6.582514 78.129585 35 26 22
13.190123 6.768748 78.335732 31 23 20
13.155413 6.919356 78.129585 30 23 21
13.155413 7.087778 78.129585 30 23 21
13.052367 7.199361 77.517601 30 23 21
13.120884 7.405132 77.924522 30 23 21
13.696046 15.269467 81.340393 23 19 18
13.402297 15.113554 79.595825 23 19 18
13.225018 15.252263 78.542969 24 19 18
13.086535 15.260093 77.720528 25 19 18
12.594668 -9.220509 73.853836 34 29 30
12.532318 -9.016447 73.488220 35 30 31
12.563416 -8.880012 73.670578 36 32 32
12.626077 -8.764700 74.038010 38 34 33
12.501374 -8.520110 73.306770 40 35 35
12.501374 -8.362085 73.306770 43 38 38
12.563416 -8.244776 73.670578 45 39 40
12.532318 -8.065951 73.488220 46 40 41
12.532318 -7.907536 73.488220 44 38 38
12.657641 -7.826612 74.223106 42 35 36
12.657641 -7.666611 74.223106 42 34 34
12.594668 -7.469265 73.853836 41 33 34
12.657641 -7.346611 74.223106 41 33 33
12.594668 -7.150857 73.853836 42 33 33
12.657641 -5.106611 74.223106 52 36 36
12.657641 -4.786612 74.223106 54 38 37
12.721248 -4.649861 74.596085 57 39 37
12.594668 -4.444389 73.853836 63 43 42
12.657641 -4.306612 74.223106 69 47 45
12.626077 -4.136271 74.038010 65 45 43
12.689365 -3.996603 74.409126 62 45 42
12.689365 -3.836202 74.409126 67 54 50
12.626077 -3.657468 74.038010 74 65 62
12.626077 -3.497867 74.038010 76 70 69
12.689365 -3.354999 74.409126 69 65 65
12.753291 -3.210691 74.783989 75 70 70
12.753291 -3.049482 74.783989 110 102 101
12.689365 -2.873796 74.409126 132 120 117
12.785497 -2.733951 74.972832 120 102 95
12.753291 -2.565855 74.783989 122 99 88
12.785497 -2.410718 74.972832 145 119 103
12.721248 -2.237800 74.596085 169 142 124
12.753291 -2.082228 74.783989 204 182 165
12.817865 -1.930746 75.162636 207 187 174
12.817865 -1.768720 75.162636 156 131 120
12.785497 -1.602638 74.972832 111 80 73
12.785497 -1.441022 74.972832 101 70 66
12.785497 -1.279405 74.972832 110 79 77
12.850397 -1.123463 75.353409 117 87 83
12.850397 -0.961027 75.353409 117 90 83
12.883096 -0.800622 75.545143 113 89 81
12.915961 -0.639399 75.737862 107 88 78
13.015570 -0.479806 76.321960 100 85 75
12.915961 -0.312869 75.737862 97 84 77
12.850397 -0.148844 75.353409 102 90 87
12.850397 0.013593 75.353409 113 101 100
12.883096 0.176477 75.545143 122 108 109
12.850397 0.338466 75.353409 129 114 116
12.850397 0.500902 75.353409 138 121 124
12.883096 0.665027 75.545143 138 120 123
12.883096 0.827877 75.545143 127 107 112
12.883096 0.990726 75.545143 126 105 110
12.883096 1.153576 75.545143 154 131 135
12.883096 1.316426 75.545143 181 158 160
12.883096 1.479276 75.545143 162 138 138
12.883096 1.642126 75.545143 108 84 81
12.883096 1.804976 75.545143 69 46 40
12.883096 1.967826 75.545143 72 48 40
12.915961 2.136111 75.737862 98 75 66
12.915961 2.299376 75.737862 109 87 77
12.883096 2.456375 75.545143 98 76 67
12.883096 2.619225 75.545143 95 75 66
12.883096 2.782075 75.545143 110 91 83
12.883096 2.944925 75.545143 108 90 85
12.915961 3.115703 75.737862 79 62 60
12.948994 3.287354 75.931564 58 40 40
13.015570 3.468780 76.321960 59 40 43
13.015570 3.633305 76.321960 69 49 53
13.015570 3.797829 76.321960 77 56 60
12.982197 3.952193 76.126259 79 56 61
13.015570 4.126878 76.321960 73 50 54
13.049115 4.302463 76.518669 67 44 48
13.049115 4.467411 76.518669 64 41 44
13.150797 4.668456 77.114914 65 40 43
13.150797 4.834690 77.114914 66 39 44
13.150797 5.000923 77.114914 67 38 43
13.219469 5.194139 77.517601 67 36 42
13.288862 5.389384 77.924522 68 36 42
13.288862 5.557364 77.924522 68 37 42
13.288862 5.725342 77.924522 72 41 46
13.358989 5.924421 78.335732 90 63 66
13.358989 6.093286 78.335732 113 91 90
13.358989 6.262152 78.335732 100 83 81
13.323833 6.414093 78.129585 62 49 46
13.323833 6.582514 78.129585 38 28 26
13.358989 6.768748 78.335732 32 23 21
13.323833 6.919356 78.129585 30 23 21
13.323833 7.087778 78.129585 30 23 20
13.219469 7.199361 77.517601 29 22 19
13.288862 7.405132 77.924522 29 22 19
12.722225 -9.197629 73.670578 34 28 28
12.659399 -8.994184 73.306770 34 28 29
12.722225 -8.880012 73.670578 35 30 30
12.785677 -8.764700 74.038010 36 32 31
12.659399 -8.520110 73.306770 39 34 34
12.659399 -8.362085 73.306770 43 37 37
12.722225 -8.244776 73.670578 47 40 41
12.690734 -8.065951 73.488220 49 42 43
12.690734 -7.907536 73.488220 47 40 40
12.849766 -7.846227 74.409126 43 37 37
12.817641 -7.666611 74.223106 43 36 36
12.753872 -7.469265 73.853836 42 34 36
12.849766 -7.365024 74.409126 42 34 34
12.785677 -7.168690 74.038010 42 33 33
12.849766 -4.798608 74.409126 52 36 35
12.882051 -4.649861 74.596085 55 37 37
12.785677 -4.455472 74.038010 60 42 41
12.817641 -4.306612 74.223106 67 47 47
12.785677 -4.136271 74.038010 68 48 48
12.882051 -4.006645 74.596085 67 50 50
12.849766 -3.836202 74.409126 74 59 59
12.785677 -3.657468 74.038010 80 69 68
12.785677 -3.497867 74.038010 74 66 67
12.849766 -3.354999 74.409126 62 56 57
12.914500 -3.210691 74.783989 74 66 69
12.914500 -3.049482 74.783989 116 105 108
12.849766 -2.873796 74.409126 139 124 127
12.947113 -2.733951 74.972832 126 106 106
12.914500 -2.565855 74.783989 121 97 95
12.947113 -2.410718 74.972832 133 106 101
12.882051 -2.237800 74.596085 147 118 111
12.947113 -2.087486 74.972832 177 151 143
12.979890 -1.930746 75.162636 191 167 161
12.979890 -1.768720 75.162636 156 127 123
12.947113 -1.602638 74.972832 106 74 72
12.947113 -1.441022 74.972832 83 50 51
12.947113 -1.279405 74.972832 87 56 56
13.012835 -1.123463 75.353409 97 68 65
13.012835 -0.961027 75.353409 102 77 71
13.045946 -0.800622 75.545143 105 84 76
13.079226 -0.639399 75.737862 105 88 79
13.146299 -0.478576 76.126259 102 89 81
13.045946 -0.312073 75.545143 101 90 85
13.012835 -0.148844 75.353409 105 95 93
13.012835 0.013593 75.353409 113 101 102
13.045946 0.176477 75.545143 122 108 111
13.012835 0.338466 75.353409 137 123 127
13.012835 0.500902 75.353409 154 139 142
13.045946 0.665027 75.545143 151 135 139
13.045946 0.827877 75.545143 123 105 111
13.012835 0.988212 75.353409 113 94 99
13.045946 1.153576 75.545143 150 129 133
13.045946 1.316426 75.545143 179 157 161
13.045946 1.479276 75.545143 149 127 128
13.045946 1.642126 75.545143 93 71 69
13.045946 1.804976 75.545143 64 43 36
13.045946 1.967826 75.545143 79 57 48
13.079226 2.136111 75.737862 117 96 85
13.079226 2.299376 75.737862 130 110 99
13.012835 2.450141 75.353409 105 86 76
13.045946 2.619225 75.545143 95 76 66
13.045946 2.782075 75.545143 117 99 90
13.045946 2.944925 75.545143 121 104 98
13.079226 3.115703 75.737862 87 70 67
13.079226 3.278968 75.737862 60 43 43
13.112677 3.451037 75.931564 61 43 46
13.146299 3.623988 76.126259 73 53 58
13.146299 3.788091 76.126259 84 63 69
13.112677 3.942086 75.931564 87 65 71
13.146299 4.116296 76.126259 79 56 62
13.180094 4.291402 76.321960 70 47 52
13.146299 4.444501 76.126259 67 45 47
13.248208 4.644330 76.716385 67 45 47
13.282530 4.822165 76.915138 69 45 47
13.214064 4.962256 76.518669 69 43 46
13.351710 5.180613 77.315735 68 40 43
13.421615 5.375276 77.720528 67 38 42
13.421615 5.542815 77.720528 68 38 42
13.456841 5.725342 77.924522 69 40 43
13.527854 5.924421 78.335732 77 51 52
13.527854 6.093286 78.335732 87 66 64
13.492254 6.245672 78.129585 82 64 62
13.492254 6.414093 78.129585 62 48 45
13.492254 6.582514 78.129585 46 35 32
13.492254 6.750936 78.129585 37 28 25
13.492254 6.919356 78.129585 32 24 22
13.492254 7.087778 78.129585 30 23 20
13.386571 7.199361 77.517601 29 22 19
13.456841 7.405132 77.924522 28 22 19
13.456841 7.573112 77.924522 27 21 18
13.282530 14.936154 76.915138 23 19 18
12.945278 -9.243503 74.038010 33 26 27
12.913076 -8.902101 73.853836 34 28 28
12.945278 -8.764700 74.038010 35 30 29
12.817424 -8.520110 73.306770 37 31 31
12.849150 -8.382784 73.488220 40 34 34
12.881034 -8.244776 73.670578 44 38 38
12.849150 -8.065951 73.488220 48 41 42
13.010167 -7.846227 74.409126 43 37 37
12.945278 -7.647492 74.038010 43 36 36
12.881034 -7.450731 73.670578 42 34 36
13.075709 -4.822782 74.783989 50 34 34
13.075709 -4.661573 74.783989 52 35 36
12.977642 -4.466611 74.223106 57 40 40
13.010167 -4.317405 74.409126 67 48 49
12.977642 -4.146611 74.223106 73 54 55
13.042856 -4.006645 74.596085 72 54 57
13.042856 -3.845840 74.596085 76 60 63
12.945278 -3.657468 74.038010 83 69 71
12.977642 -3.506611 74.223106 77 65 66
13.042856 -3.363428 74.596085 62 51 54
13.042856 -3.202625 74.596085 69 56 59
13.108729 -3.057183 74.972832 105 89 93
13.042856 -2.881016 74.596085 132 113 117
13.108729 -2.733951 74.972832 127 104 107
13.108729 -2.572335 74.972832 120 94 97
13.108729 -2.410718 74.972832 126 97 99
13.042856 -2.237800 74.596085 130 100 100
13.108729 -2.087486 74.972832 144 115 113
13.141915 -1.930746 75.162636 156 126 125
13.141915 -1.768720 75.162636 134 104 104
13.108729 -1.602638 74.972832 96 65 67
13.141915 -1.444670 75.162636 76 45 48
13.108729 -1.279405 74.972832 77 49 50
13.175271 -1.123463 75.353409 84 58 57
13.175271 -0.961027 75.353409 88 68 62
13.208796 -0.800622 75.545143 94 78 70
13.208796 -0.637772 75.545143 99 86 78
13.276360 -0.477352 75.931564 101 92 84
13.208796 -0.312073 75.545143 105 97 92
13.208796 -0.149223 75.545143 113 104 103
13.175271 0.013593 75.353409 120 109 111
13.208796 0.176477 75.545143 129 117 121
13.175271 0.338466 75.353409 145 132 136
13.175271 0.500902 75.353409 162 148 153
13.208796 0.665027 75.545143 158 144 149
13.208796 0.827877 75.545143 124 110 115
13.208796 0.990726 75.545143 111 95 100
13.208796 1.153576 75.545143 147 129 133
13.208796 1.316426 75.545143 167 148 151
13.208796 1.479276 75.545143 130 110 110
13.208796 1.642126 75.545143 79 59 55
13.208796 1.804976 75.545143 61 42 34
13.208796 1.967826 75.545143 86 68 57
13.242492 2.136111 75.737862 134 117 105
13.242492 2.299376 75.737862 154 137 125
13.175271 2.450141 75.353409 121 105 95
13.208796 2.619225 75.545143 95 78 70
13.208796 2.782075 75.545143 108 92 85
13.208796 2.944925 75.545143 115 99 95
13.208796 3.107775 75.545143 89 73 71
13.208796 3.270625 75.545143 66 49 51
13.242492 3.442233 75.737862 66 48 53
13.276360 3.614720 75.931564 76 56 63
13.276360 3.778403 75.931564 86 64 71
13.208796 3.922024 75.545143 89 66 73
13.242492 4.095294 75.737862 82 58 66
13.310402 4.280399 76.126259 74 50 56
13.276360 4.433134 75.931564 71 48 51
13.344619 4.620451 76.321960 72 49 51
13.379012 4.797308 76.518669 76 52 54
13.310402 4.936809 76.126259 76 50 52
13.448334 5.153770 76.915138 71 45 46
13.553673 5.361241 77.517601 68 40 42
13.518376 5.513947 77.315735 67 39 41
13.589153 5.710355 77.720528 67 41 41
13.660675 5.908830 78.129585 69 45 44
13.660675 6.077251 78.129585 71 51 49
13.624821 6.229280 77.924522 71 54 52
13.624821 6.397258 77.924522 65 52 50
13.624821 6.565238 77.924522 55 44 42
13.660675 6.750936 78.129585 43 33 31
13.660675 6.919356 78.129585 34 26 24
13.624821 7.069174 77.924522 30 23 21
13.518376 7.180613 77.315735 29 22 20
13.624821 7.405132 77.924522 28 22 19
13.660675 7.593041 78.129585 28 21 19
13.236918 -9.336637 74.783989 32 25 26
13.072280 -9.061305 73.853836 33 26 26
13.137642 -8.946611 74.223106 33 26 26
13.137642 -8.786612 74.223106 33 27 27
12.975449 -8.520110 73.306770 34 29 28
13.039843 -8.403584 73.670578 37 31 31
13.072280 -8.265285 73.853836 41 35 35
13.039843 -8.085966 73.670578 44 38 38
13.270345 -4.673345 74.972832 49 33 34
13.170568 -4.477806 74.409126 54 38 39
13.203660 -4.328253 74.596085 66 48 50
13.170568 -4.157004 74.409126 73 55 57
13.203660 -4.006645 74.596085 71 53 57
13.203660 -3.845840 74.596085 72 55 59
13.104879 -3.657468 74.038010 79 63 66
13.137642 -3.506611 74.223106 78 62 65
13.203660 -3.363428 74.596085 66 50 53
13.203660 -3.202625 74.596085 65 49 51
13.270345 -3.057183 74.972832 89 70 72
13.203660 -2.881016 74.596085 115 93 96
13.270345 -2.733951 74.972832 119 95 96
13.270345 -2.572335 74.972832 116 90 90
13.270345 -2.410718 74.972832 118 91 90
13.203660 -2.237800 74.596085 116 88 87
13.236918 -2.082228 74.783989 120 91 90
13.303941 -1.930746 75.162636 125 96 95
13.303941 -1.768720 75.162636 111 82 83
13.236918 -1.598601 74.783989 86 58 60
13.270345 -1.441022 74.972832 73 46 49
13.270345 -1.279405 74.972832 73 48 50
13.303941 -1.120619 75.162636 75 54 54
13.303941 -0.958594 75.162636 77 60 57
13.337708 -0.798590 75.353409 81 68 63
13.337708 -0.636154 75.353409 86 76 70
13.405757 -0.476134 75.737862 92 85 79
13.405757 -0.312869 75.737862 105 98 96
13.371645 -0.149223 75.545143 123 115 115
13.337708 0.013593 75.353409 136 128 130
13.371645 0.176477 75.545143 145 135 139
13.337708 0.338466 75.353409 153 142 147
13.337708 0.500902 75.353409 162 150 156
13.371645 0.665027 75.545143 158 146 152
13.371645 0.827877 75.545143 131 119 124
13.337708 0.988212 75.353409 118 104 109
13.371645 1.153576 75.545143 140 125 129
13.371645 1.316426 75.545143 149 133 134
13.371645 1.479276 75.545143 114 97 94
13.371645 1.642126 75.545143 74 57 49
13.337708 1.800395 75.353409 64 48 36
13.337708 1.962831 75.353409 92 77 63
13.371645 2.130676 75.545143 147 133 120
13.371645 2.293525 75.545143 178 163 153
13.337708 2.450141 75.353409 143 128 121
13.371645 2.619225 75.545143 96 81 77
13.371645 2.782075 75.545143 94 78 77
13.371645 2.944925 75.545143 102 86 87
13.371645 3.107775 75.545143 88 71 75
13.371645 3.270625 75.545143 71 54 60
13.371645 3.433475 75.545143 71 53 61
13.440042 3.614720 75.931564 77 58 66
13.405757 3.768764 75.737862 82 61 70
13.337708 3.912070 75.353409 84 61 70
13.371645 4.084874 75.545143 81 57 65
13.440042 4.269451 75.931564 77 53 59
13.405757 4.421825 75.737862 75 51 55
13.440042 4.596817 75.931564 77 54 56
13.474504 4.772707 76.126259 85 61 62
13.440042 4.924183 75.931564 88 63 64
13.543961 5.127205 76.518669 79 53 54
13.649498 5.333391 77.114914 68 43 43
13.649498 5.499625 77.114914 64 39 40
13.685043 5.680613 77.315735 65 40 41
13.792800 5.893322 77.924522 64 42 42
13.792800 6.061300 77.924522 64 45 44
13.756693 6.212973 77.720528 67 51 50
13.792800 6.397258 77.924522 72 59 58
13.756693 6.548051 77.720528 66 55 54
13.792800 6.733216 77.924522 49 40 38
13.792800 6.901196 77.924522 35 27 26
13.792800 7.069174 77.924522 30 23 22
13.685043 7.180613 77.315735 29 22 21
13.756693 7.385747 77.720528 29 21 20
13.792800 7.573112 77.924522 28 21 20
13.792800 7.741090 77.924522 27 20 19
13.543961 14.364318 76.518669 19 17 16
13.465966 -9.383910 75.162636 31 24 24
13.330969 -9.129435 74.409126 31 25 24
13.330969 -8.969034 74.409126 32 26 25
13.297642 -8.786612 74.223106 32 27 25
13.133473 -8.520110 73.306770 33 29 27
13.297642 -8.306611 74.223106 37 32 32
13.231484 -8.106081 73.853836 39 34 34
13.198651 -7.927158 73.670578 40 35 35
13.431961 -4.673345 74.972832 47 33 33
13.330969 -4.477806 74.409126 52 36 37
13.398128 -4.339155 74.783989 60 43 45
13.330969 -4.157004 74.409126 65 49 51
13.398128 -4.016737 74.783989 64 46 50
13.364464 -3.845840 74.596085 65 46 51
13.297642 -3.666611 74.223106 72 54 58
13.297642 -3.506611 74.223106 76 57 60
13.364464 -3.363428 74.596085 71 52 54
13.364464 -3.202625 74.596085 70 50 50
13.431961 -3.057183 74.972832 84 61 60
13.364464 -2.881016 74.596085 102 78 76
13.431961 -2.733951 74.972832 110 85 82
13.398128 -2.565855 74.783989 112 86 82
13.431961 -2.410718 74.972832 111 87 81
13.364464 -2.237800 74.596085 109 84 78
13.364464 -2.076996 74.596085 108 82 78
13.398128 -1.921019 74.783989 107 81 78
13.398128 -1.759810 74.783989 94 69 69
13.364464 -1.594584 74.596085 78 54 55
13.398128 -1.437392 74.783989 72 49 51
13.364464 -1.272976 74.596085 72 51 53
13.398128 -1.114974 74.783989 72 54 55
13.398128 -0.953765 74.783989 71 56 56
13.431961 -0.794557 74.972832 71 60 58
13.465966 -0.634543 75.162636 71 64 62
13.500144 -0.473717 75.353409 79 73 71
13.534495 -0.312073 75.545143 98 92 92
13.500144 -0.148844 75.353409 125 120 121
13.500144 0.013593 75.353409 154 147 150
13.534495 0.176477 75.545143 168 160 165
13.500144 0.338466 75.353409 166 157 163
13.500144 0.500902 75.353409 163 153 160
13.534495 0.665027 75.545143 157 146 153
13.534495 0.827877 75.545143 137 125 131
13.500144 0.988212 75.353409 122 109 114
13.534495 1.153576 75.545143 131 118 120
13.534495 1.316426 75.545143 136 122 119
13.534495 1.479276 75.545143 112 97 90
13.534495 1.642126 75.545143 81 67 55
13.534495 1.804976 75.545143 71 58 43
13.500144 1.962831 75.353409 96 82 67
13.534495 2.130676 75.545143 156 144 131
13.569022 2.299376 75.737862 197 185 176
13.534495 2.456375 75.545143 160 147 144
13.534495 2.619225 75.545143 100 87 88
13.534495 2.782075 75.545143 86 72 77
13.534495 2.944925 75.545143 95 79 86
13.534495 3.107775 75.545143 89 72 81
13.534495 3.270625 75.545143 78 61 71
13.534495 3.433475 75.545143 76 58 69
13.569022 3.605499 75.737862 79 59 70
13.569022 3.768764 75.737862 80 58 69
13.500144 3.912070 75.353409 79 55 66
13.500144 4.074506 75.353409 78 53 63
13.569022 4.258560 75.737862 78 53 61
13.569022 4.421825 75.737862 78 53 59
13.569022 4.585091 75.737862 83 58 62
13.603725 4.760500 75.931564 96 71 74
13.569022 4.911621 75.737862 104 79 82
13.673668 5.114024 76.321960 92 67 69
13.815732 5.333391 77.114914 70 46 47
13.815732 5.499625 77.114914 61 38 39
13.851710 5.680613 77.315735 61 39 41
13.960778 5.893322 77.924522 60 40 42
13.960778 6.061300 77.924522 58 41 42
13.924232 6.212973 77.720528 62 47 48
13.960778 6.397258 77.924522 71 58 58
13.960778 6.565238 77.924522 70 59 59
13.960778 6.733216 77.924522 54 44 44
13.960778 6.901196 77.924522 38 30 30
13.960778 7.069174 77.924522 31 24 24
13.887877 7.199361 77.517601 29 22 22
13.960778 7.405132 77.924522 28 21 21
13.960778 7.573112 77.924522 28 21 20
13.960778 7.741090 77.924522 27 21 19
13.960778 7.909070 77.924522 26 20 19
13.708909 14.364318 76.518669 18 16 16
12.116302 15.319716 67.629250 23 19 20
12.255891 15.791142 68.408394 23 19 19
13.627992 -9.383910 75.162636 29 24 23
13.491370 -9.129435 74.409126 29 24 24
13.491370 -8.969034 74.409126 30 25 25
13.457642 -8.786612 74.223106 31 27 25
13.291498 -8.520110 73.306770 32 28 27
13.424082 -8.285896 74.038010 35 30 29
13.357461 -8.085966 73.670578 36 31 30
13.593577 -4.673345 74.972832 46 33 32
13.491370 -4.477806 74.409126 49 35 34
13.593577 -4.350112 74.972832 53 38 39
13.525268 -4.167449 74.596085 55 40 42
