ply
format ascii 1.0
element vertex 1222
property float x
property float y
property float z
property uchar red
property uchar green
property uchar blue
end_header
10.202156 1.447664 60.590290 96 70 79
10.181378 1.575062 60.466888 101 77 85
10.160685 1.701942 60.343987 108 85 91
10.119548 1.824606 60.099682 115 93 97
10.099104 1.950213 59.978268 121 100 104
10.099104 2.079506 59.978268 124 104 107
10.058464 2.199910 59.736904 122 103 106
10.038266 2.324007 59.616951 121 102 107
10.018149 2.447606 59.497478 122 103 109
10.018149 2.575863 59.497478 126 106 115
9.998114 2.698711 59.378483 132 110 122
9.978157 2.821069 59.259964 133 112 124
9.998114 2.954711 59.378483 129 109 121
9.998114 3.082711 59.378483 121 102 114
9.998114 3.210711 59.378483 110 91 103
9.978157 3.332047 59.259964 102 82 95
9.978157 3.459791 59.259964 101 81 93
9.958281 3.580389 59.141918 105 85 97
9.958281 3.707879 59.141918 113 92 102
9.958281 3.835369 59.141918 123 101 110
9.958281 3.962859 59.141918 130 108 116
9.998114 4.106711 59.378483 130 109 115
10.018149 4.243197 59.497478 126 105 110
9.978157 4.354003 59.259964 120 99 102
9.978157 4.481748 59.259964 117 96 97
10.018149 4.756223 59.497478 127 105 103
10.058464 4.904136 59.736904 134 112 109
10.119548 5.063473 60.099682 139 118 115
10.140075 5.203561 60.221588 142 121 119
10.160685 5.344218 60.343987 149 130 128
10.140075 5.463196 60.221588 171 152 152
10.119548 5.581691 60.099682 182 164 165
10.078743 5.688217 59.857342 166 148 151
10.119548 5.840801 60.099682 145 127 132
10.140075 5.982465 60.221588 133 116 122
10.099104 6.087587 59.978268 126 109 117
10.160685 6.254787 60.343987 118 103 111
10.140075 6.371918 60.221588 110 96 105
10.119548 6.488574 60.099682 107 93 102
10.058464 6.578180 59.736904 112 99 108
9.998114 6.666711 59.378483 122 108 118
10.018149 6.808328 59.497478 126 111 121
10.018149 6.936584 59.497478 117 100 111
10.018149 7.064841 59.497478 105 85 96
9.998114 7.178711 59.378483 95 75 86
9.978157 7.292127 59.259964 92 72 83
10.018149 7.449610 59.497478 94 74 84
10.018149 7.577867 59.497478 99 79 89
9.958281 7.660070 59.141918 104 82 95
9.958281 7.787560 59.141918 107 85 99
9.958281 7.915051 59.141918 110 88 102
9.998114 8.074711 59.378483 110 88 101
9.998114 8.202711 59.378483 107 85 97
10.018149 8.347405 59.497478 99 77 88
9.998114 8.458711 59.378483 88 65 74
9.978157 8.569571 59.259964 79 55 62
10.038266 8.749710 59.616951 80 55 60
9.998114 8.842710 59.378483 88 63 66
9.998114 8.970711 59.378483 98 73 75
10.018149 9.116945 59.497478 106 82 84
9.998114 9.226711 59.378483 112 90 93
10.038266 9.392280 59.616951 113 92 96
10.038266 9.520794 59.616951 96 77 82
10.018149 9.629971 59.497478 72 54 60
10.018149 9.758227 59.497478 74 57 63
10.018149 9.886484 59.497478 103 86 92
10.018149 10.014740 59.497478 127 109 116
9.998114 10.122711 59.378483 124 106 113
9.998114 10.250710 59.378483 101 85 90
9.998114 10.378711 59.378483 84 68 70
9.978157 10.485740 59.259964 77 63 60
9.998114 10.634711 59.378483 72 61 53
9.958281 10.719831 59.141918 67 57 45
9.958281 10.847322 59.141918 87 78 64
9.918763 10.931261 58.907227 154 148 135
9.938482 11.080230 59.024338 215 210 202
9.938482 11.207466 59.024338 217 209 206
9.938482 11.334702 59.024338 180 166 167
9.879559 11.393983 58.674393 143 126 130
9.899122 11.543278 58.790577 123 104 109
9.918763 11.693166 58.907227 115 93 99
9.918763 11.820149 58.907227 111 86 91
9.899122 11.923476 58.790577 107 80 84
9.918763 12.074118 58.907227 104 77 79
9.958281 12.249712 59.141918 103 77 77
9.978157 12.401907 59.259964 100 75 74
9.978157 12.529652 59.259964 95 72 70
9.958281 12.632182 59.141918 92 70 68
9.998114 12.810711 59.378483 91 70 69
10.058464 13.016811 59.736904 89 68 68
9.998114 13.066710 59.378483 83 62 64
9.978157 13.168374 59.259964 77 57 58
9.978157 13.296119 59.259964 72 51 54
10.018149 13.477666 59.497478 70 48 52
10.018149 13.605923 59.497478 71 49 54
9.978157 13.679352 59.259964 80 58 63
9.958281 13.779593 59.141918 91 68 74
9.958281 13.907083 59.141918 95 73 77
9.978157 14.062586 59.259964 88 66 70
9.978157 14.190331 59.259964 75 53 57
9.958281 14.289553 59.141918 66 44 46
9.978157 14.445819 59.259964 64 42 42
9.998114 14.602711 59.378483 66 45 44
9.998114 14.730711 59.378483 69 47 46
9.958281 14.799513 59.141918 70 47 46
9.958281 14.927003 59.141918 70 48 46
9.958281 15.054493 59.141918 71 48 46
9.958281 15.181983 59.141918 73 48 47
9.938482 15.279037 59.024338 75 50 49
9.918763 15.375706 58.907227 78 52 52
9.899122 15.471991 58.790577 80 55 55
9.899122 15.598723 58.790577 81 58 57
9.879559 15.694379 58.674393 79 56 55
9.879559 15.820861 58.674393 72 51 49
9.879559 15.947343 58.674393 65 47 43
9.879559 16.073826 58.674393 64 47 43
9.860072 16.168354 58.558662 63 49 44
9.879559 16.326790 58.674393 63 51 45
9.899122 16.485853 58.790577 64 52 46
10.592169 -14.047374 62.111385 43 29 30
10.482519 -13.769450 61.468410 44 30 30
10.332768 -11.613561 60.590290 51 30 31
10.353899 -11.506431 60.714195 54 31 32
10.375116 -11.398862 60.838612 55 33 34
10.375116 -11.267715 60.838612 56 34 34
10.375116 -11.136567 60.838612 56 35 36
10.375116 -11.005419 60.838612 59 38 39
10.396420 -10.896601 60.963535 63 42 42
10.417812 -10.787334 61.088974 65 43 43
10.396420 -10.633767 60.963535 65 42 42
10.396420 -10.502350 60.963535 64 39 41
10.417812 -10.392273 61.088974 64 38 40
10.375116 -9.825091 60.838612 76 47 52
10.353899 -9.674120 60.714195 76 48 54
10.332768 -9.523765 60.590290 74 46 53
10.290766 -9.354969 60.343987 71 44 51
10.290766 -9.224887 60.343987 70 42 49
10.269892 -9.076358 60.221588 71 42 50
10.269892 -8.946541 60.221588 72 42 50
10.228397 -8.781100 59.978268 73 42 49
10.269892 -8.686906 60.221588 73 42 49
10.290766 -8.574481 60.343987 75 44 49
10.269892 -8.427271 60.221588 77 46 50
10.249103 -8.280657 60.099682 78 47 48
10.269892 -8.167636 60.221588 77 47 47
10.269892 -8.037819 60.221588 73 44 43
10.249103 -7.891993 60.099682 68 40 39
10.269892 -7.778183 60.221588 65 38 37
10.269892 -7.648366 60.221588 65 38 37
10.269892 -7.518549 60.221588 66 39 38
10.290766 -7.403749 60.343987 68 41 40
10.228397 -7.229585 59.978268 70 42 42
10.228397 -7.100292 59.978268 70 41 41
10.249103 -6.985110 60.099682 66 38 38
10.249103 -6.855556 60.099682 64 36 36
10.207775 -6.698880 59.857342 62 34 36
10.249103 -6.596447 60.099682 61 34 36
10.311725 -6.506404 60.466888 61 34 36
10.311725 -6.376058 60.466888 61 34 37
10.290766 -6.233017 60.343987 60 34 37
10.269892 -6.090557 60.221588 59 34 37
10.290766 -5.972855 60.343987 60 35 37
10.311725 -5.854673 60.466888 60 34 37
10.311725 -5.724327 60.466888 62 35 39
10.311725 -5.593981 60.466888 64 35 40
10.311725 -5.463634 60.466888 64 34 38
10.311725 -5.333288 60.466888 64 34 37
10.290766 -5.192367 60.343987 69 40 42
10.290766 -5.062285 60.343987 76 46 47
10.269892 -4.922200 60.221588 82 52 53
10.249103 -4.782681 60.099682 89 58 61
10.290766 -4.672042 60.343987 96 65 69
10.228397 -4.514433 59.978268 96 65 71
10.228397 -4.385140 59.978268 91 59 66
10.207775 -4.247267 59.857342 86 53 61
10.207775 -4.118235 59.857342 83 49 57
10.207775 -3.989203 59.857342 85 51 57
10.228397 -3.867969 59.978268 95 61 66
10.207775 -3.731138 59.857342 97 64 68
10.166780 -3.587640 59.616951 91 59 61
10.187237 -3.466086 59.736904 90 59 61
10.187237 -3.337313 59.736904 95 65 66
10.187237 -3.208540 59.736904 93 63 64
10.249103 -3.098471 60.099682 87 56 58
10.207775 -2.956945 59.857342 85 53 56
10.249103 -2.839361 60.099682 84 52 55
10.269892 -2.715303 60.221588 81 48 51
10.269892 -2.585486 60.221588 77 44 47
10.290766 -2.460660 60.343987 74 43 44
10.311725 -2.335325 60.466888 72 41 43
10.311725 -2.204979 60.466888 72 41 43
10.228397 -2.057868 59.978268 74 44 45
10.290766 -1.940334 60.343987 78 46 48
10.269892 -1.806581 60.221588 82 50 51
10.249103 -1.673370 60.099682 88 55 56
10.249103 -1.543815 60.099682 99 65 67
10.207775 -1.408558 59.857342 112 76 80
10.166780 -1.274387 59.616951 114 78 84
10.146406 -1.143576 59.497478 106 70 79
10.105902 -1.011266 59.259964 100 64 76
10.105902 -0.883522 59.259964 98 62 76
10.105902 -0.755777 59.259964 97 61 76
10.126113 -0.629289 59.378483 97 62 75
10.025855 -0.496326 58.790577 99 65 77
9.966647 -0.367410 58.443390 103 68 79
9.966647 -0.241426 58.443390 105 71 80
10.025855 -0.116128 58.790577 105 72 79
10.025855 0.010605 58.790577 104 71 80
10.126113 0.138711 59.378483 103 71 81
10.207775 0.268862 59.857342 102 70 81
10.311725 0.401946 60.466888 104 73 84
10.290766 0.531210 60.343987 110 79 91
10.269892 0.659950 60.221588 118 86 97
10.290766 0.791373 60.343987 124 92 103
10.290766 0.921454 60.343987 126 96 106
10.311725 1.053677 60.466888 122 92 102
10.290766 1.181617 60.343987 110 81 90
10.290766 1.311698 60.343987 98 69 77
10.290766 1.441779 60.343987 94 66 74
10.290766 1.571861 60.343987 97 70 78
10.290766 1.701942 60.343987 101 75 82
10.228397 1.820920 59.978268 104 79 85
10.228397 1.950213 59.978268 107 83 88
10.207775 2.075313 59.857342 110 87 91
10.166780 2.195493 59.616951 113 90 95
10.146406 2.319350 59.497478 115 92 98
10.146406 2.447606 59.497478 117 95 102
10.146406 2.575863 59.497478 122 99 109
10.105902 2.693324 59.259964 126 103 115
10.126113 2.826711 59.378483 125 103 116
10.146406 2.960632 59.497478 120 99 113
10.146406 3.088889 59.497478 114 94 109
10.146406 3.217145 59.497478 108 89 103
10.126113 3.338711 59.378483 102 82 97
10.126113 3.466711 59.378483 99 78 93
10.146406 3.601915 59.497478 102 81 95
10.126113 3.722711 59.378483 111 90 103
10.126113 3.850711 59.378483 124 102 113
10.146406 3.986684 59.497478 132 111 120
10.207775 4.139830 59.857342 132 111 119
10.228397 4.277486 59.978268 125 104 111
10.166780 4.380232 59.616951 117 96 102
10.166780 4.508746 59.616951 113 91 95
10.228397 4.665365 59.978268 116 94 96
10.187237 4.775363 59.736904 126 104 104
10.228397 4.923951 59.978268 138 117 115
10.269892 5.073743 60.221588 152 131 128
10.290766 5.214137 60.343987 160 140 138
10.290766 5.344218 60.343987 171 152 150
10.269892 5.463196 60.221588 196 177 178
10.249103 5.581691 60.099682 207 188 191
10.207775 5.688217 59.857342 180 161 165
10.249103 5.840801 60.099682 144 124 131
10.269892 5.982465 60.221588 123 103 111
10.228397 6.087587 59.978268 115 95 104
10.290766 6.254787 60.343987 110 91 99
10.269892 6.371918 60.221588 105 88 96
10.269892 6.501735 60.221588 102 86 94
10.207775 6.591443 59.857342 101 85 93
10.166780 6.693485 59.616951 102 85 93
10.166780 6.821999 59.616951 101 83 91
10.146406 6.936584 59.497478 97 77 86
10.166780 7.079027 59.616951 93 71 80
10.126113 7.178711 59.378483 90 67 75
10.105902 7.292127 59.259964 88 66 74
10.146406 7.449610 59.497478 89 67 74
10.146406 7.577867 59.497478 91 69 77
10.105902 7.675360 59.259964 95 72 81
10.085771 7.787560 59.141918 100 78 88
10.085771 7.915051 59.141918 105 83 93
10.105902 8.058594 59.259964 105 84 92
10.126113 8.202711 59.378483 99 78 86
10.146406 8.347405 59.497478 90 69 75
10.126113 8.458711 59.378483 81 58 63
10.105902 8.569571 59.259964 74 50 54
10.166780 8.749710 59.616951 76 52 54
10.126113 8.842710 59.378483 87 62 64
10.126113 8.970711 59.378483 100 76 76
10.146406 9.116945 59.497478 111 87 89
10.126113 9.226711 59.378483 121 99 101
10.166780 9.392280 59.616951 121 101 104
10.146406 9.501715 59.497478 98 80 84
10.146406 9.629971 59.497478 71 54 59
10.126113 9.738711 59.378483 84 68 74
10.126113 9.866711 59.378483 132 115 122
10.126113 9.994711 59.378483 153 137 144
10.105902 10.102506 59.259964 130 113 120
10.105902 10.230250 59.259964 94 78 83
10.105902 10.357995 59.259964 77 62 63
10.085771 10.464851 59.141918 76 63 59
10.105902 10.613484 59.259964 75 64 55
10.065719 10.698520 59.024338 77 66 54
10.045748 10.804276 58.907227 106 96 82
10.025855 10.909615 58.790577 172 164 153
10.045748 11.058245 58.907227 218 212 206
10.045748 11.185229 58.907227 203 194 192
10.045748 11.312213 58.907227 157 142 145
9.986305 11.371510 58.558662 123 104 112
10.006041 11.520465 58.674393 109 86 97
10.045748 11.693166 58.907227 103 78 88
10.025855 11.796743 58.790577 100 73 82
10.025855 11.923476 58.790577 100 71 79
10.045748 12.074118 58.907227 101 72 78
10.085771 12.249712 59.141918 103 75 78
10.105902 12.401907 59.259964 101 75 75
10.105902 12.529652 59.259964 97 72 71
10.085771 12.632182 59.141918 93 70 69
10.126113 12.810711 59.378483 93 71 71
10.187237 13.016811 59.736904 93 71 72
10.126113 13.066710 59.378483 86 65 67
10.105902 13.168374 59.259964 78 56 58
10.105902 13.296119 59.259964 71 49 52
10.146406 13.477666 59.497478 67 45 48
10.126113 13.578711 59.378483 69 46 50
10.105902 13.679352 59.259964 76 53 58
10.085771 13.779593 59.141918 83 61 66
10.085771 13.907083 59.141918 85 64 68
10.105902 14.062586 59.259964 80 59 62
10.105902 14.190331 59.259964 72 51 54
10.085771 14.289553 59.141918 67 45 47
10.105902 14.445819 59.259964 65 44 44
10.105902 14.573564 59.259964 67 46 46
10.105902 14.701308 59.259964 70 48 48
10.085771 14.799513 59.141918 70 48 48
10.085771 14.927003 59.141918 70 47 47
10.065719 15.024564 59.024338 71 47 47
10.065719 15.151800 59.024338 74 49 49
10.065719 15.279037 59.024338 78 52 52
10.045748 15.375706 58.907227 81 55 55
10.025855 15.471991 58.790577 82 57 57
10.025855 15.598723 58.790577 81 57 56
10.006041 15.694379 58.674393 77 54 53
10.006041 15.820861 58.674393 71 51 49
9.986305 15.915889 58.558662 67 49 46
9.986305 16.042122 58.558662 66 50 46
9.986305 16.168354 58.558662 66 52 48
9.986305 16.294586 58.558662 66 54 48
10.025855 16.485853 58.790577 68 55 50
10.420847 -11.826513 60.343987 48 28 30
10.442071 -11.720254 60.466888 48 28 30
10.463381 -11.613561 60.590290 49 29 30
10.506264 -11.530009 60.838612 50 30 31
10.527837 -11.422268 60.963535 51 31 32
10.527837 -11.290852 60.963535 52 32 33
10.527837 -11.159434 60.963535 54 33 34
10.527837 -11.028017 60.963535 56 35 36
10.549500 -10.919022 61.088974 59 38 39
10.571251 -10.809576 61.214931 62 40 41
10.571251 -10.677618 61.214931 62 39 40
10.571251 -10.545659 61.214931 62 37 39
10.571251 -10.413700 61.214931 62 37 39
10.593092 -10.302984 61.341408 63 37 39
10.571251 -10.149782 61.214931 65 37 41
10.527837 -9.976683 60.963535 67 39 43
10.527837 -9.845266 60.963535 69 42 46
10.484778 -9.674120 60.714195 70 43 48
10.463381 -9.523765 60.590290 69 42 49
10.442071 -9.374022 60.466888 69 41 48
10.442071 -9.243675 60.466888 69 41 48
10.420847 -9.094806 60.343987 70 42 48
10.442071 -8.982983 60.466888 72 42 48
10.357690 -8.781100 59.978268 73 43 49
10.420847 -8.704562 60.343987 76 44 50
10.420847 -8.574481 60.343987 80 47 51
10.399709 -8.427271 60.221588 83 49 52
10.357690 -8.263928 59.978268 82 49 49
10.399709 -8.167636 60.221588 79 46 44
10.399709 -8.037819 60.221588 73 42 40
10.357690 -7.876050 59.978268 68 37 36
10.378657 -7.762438 60.099682 65 36 34
10.378657 -7.632884 60.099682 65 37 35
10.378657 -7.503329 60.099682 68 41 39
10.399709 -7.388731 60.221588 75 47 46
10.357690 -7.229585 59.978268 82 54 53
10.357690 -7.100292 59.978268 82 53 52
10.357690 -6.970999 59.978268 73 44 44
10.378657 -6.855556 60.099682 67 39 39
10.336808 -6.698880 59.857342 64 37 38
10.378657 -6.596447 60.099682 63 36 38
10.463381 -6.519683 60.590290 62 35 38
10.442071 -6.376058 60.466888 61 35 38
10.420847 -6.233017 60.343987 60 35 38
10.420847 -6.102936 60.343987 59 35 38
10.442071 -5.985019 60.466888 59 34 38
10.442071 -5.854673 60.466888 59 33 37
10.463381 -5.736009 60.590290 61 34 38
10.463381 -5.605397 60.590290 64 35 40
10.463381 -5.474785 60.590290 62 32 37
10.442071 -5.333288 60.466888 62 32 36
10.442071 -5.202942 60.466888 67 38 40
10.442071 -5.072596 60.466888 74 45 46
10.399709 -4.922200 60.221588 81 52 53
10.399709 -4.792382 60.221588 88 59 61
10.420847 -4.672042 60.343987 95 65 70
10.357690 -4.514433 59.978268 97 66 72
10.357690 -4.385140 59.978268 91 60 66
10.357690 -4.255847 59.978268 86 53 60
10.336808 -4.118235 59.857342 83 50 56
10.336808 -3.989203 59.857342 84 51 56
10.357690 -3.867969 59.978268 91 58 61
10.336808 -3.731138 59.857342 92 60 62
10.295295 -3.587640 59.616951 86 55 56
10.316010 -3.466086 59.736904 88 58 58
10.316010 -3.337313 59.736904 96 66 67
10.336808 -3.215009 59.857342 97 67 67
10.378657 -3.098471 60.099682 91 59 61
10.357690 -2.962918 59.978268 92 59 60
10.399709 -2.845121 60.221588 95 60 63
10.399709 -2.715303 60.221588 91 57 59
10.420847 -2.590741 60.343987 85 51 52
10.420847 -2.460660 60.343987 77 45 46
10.442071 -2.335325 60.466888 73 41 43
10.442071 -2.204979 60.466888 72 41 43
10.378657 -2.062033 60.099682 73 42 45
10.420847 -1.940334 60.343987 76 44 46
10.399709 -1.806581 60.221588 79 47 49
10.378657 -1.673370 60.099682 84 51 54
10.378657 -1.543815 60.099682 92 58 62
10.336808 -1.408558 59.857342 102 67 71
10.295295 -1.274387 59.616951 104 69 75
10.274663 -1.143576 59.497478 100 64 72
10.233646 -1.011266 59.259964 95 59 70
10.213261 -0.881762 59.141918 93 57 69
10.213261 -0.754272 59.141918 92 56 69
10.233646 -0.628033 59.259964 92 57 68
10.152587 -0.496326 58.790577 95 59 70
10.072803 -0.366689 58.328571 98 62 71
10.072803 -0.240952 58.328571 101 64 72
10.132523 -0.115898 58.674393 101 65 72
10.152587 0.010605 58.790577 100 65 72
10.254113 0.138711 59.378483 99 64 73
10.295295 0.267782 59.616951 97 63 73
10.378657 0.399505 60.099682 98 65 75
10.378657 0.529060 60.099682 101 68 80
10.357690 0.657284 59.978268 106 73 84
10.399709 0.789768 60.221588 110 79 88
10.399709 0.919585 60.221588 115 84 92
10.420847 1.051535 60.343987 115 85 91
10.399709 1.179220 60.221588 107 77 83
10.420847 1.311698 60.343987 98 69 75
10.420847 1.441779 60.343987 94 66 72
10.420847 1.571861 60.343987 94 67 73
10.420847 1.701942 60.343987 96 69 75
10.357690 1.820920 59.978268 98 71 78
10.378657 1.954161 60.099682 100 74 80
10.357690 2.079506 59.978268 103 78 84
10.295295 2.195493 59.616951 107 82 89
10.295295 2.324007 59.616951 112 87 94
10.274663 2.447606 59.497478 118 94 102
10.274663 2.575863 59.497478 125 101 110
10.233646 2.693324 59.259964 125 101 112
10.233646 2.821069 59.259964 119 96 108
10.254113 2.954711 59.378483 113 92 105
10.254113 3.082711 59.378483 110 89 104
10.274663 3.217145 59.497478 108 87 102
10.254113 3.338711 59.378483 102 82 98
10.254113 3.466711 59.378483 96 75 91
10.274663 3.601915 59.497478 99 76 92
10.254113 3.722711 59.378483 109 86 101
10.274663 3.858428 59.497478 120 97 110
10.295295 3.994690 59.616951 126 104 116
10.357690 4.148193 59.978268 126 104 115
10.399709 4.294839 60.221588 120 99 108
10.336808 4.397894 59.857342 112 90 99
10.336808 4.526927 59.857342 106 85 91
10.378657 4.674809 60.099682 108 86 90
10.336808 4.784991 59.857342 118 96 98
10.378657 4.933918 60.099682 136 114 113
10.399709 5.073743 60.221588 156 135 133
10.420847 5.214137 60.343987 168 149 146
10.442071 5.355103 60.466888 173 155 154
10.399709 5.463196 60.221588 185 167 168
10.378657 5.581691 60.099682 188 170 173
10.336808 5.688217 59.857342 165 146 151
10.378657 5.840801 60.099682 134 113 120
10.399709 5.982465 60.221588 116 94 102
10.378657 6.099910 60.099682 108 86 94
10.442071 6.267527 60.466888 103 82 90
10.420847 6.384869 60.343987 99 79 86
10.399709 6.501735 60.221588 95 77 83
10.357690 6.604759 59.978268 92 75 81
10.295295 6.693485 59.616951 91 73 79
10.295295 6.821999 59.616951 89 70 75
10.274663 6.936584 59.497478 86 65 70
10.295295 7.079027 59.616951 84 62 67
10.254113 7.178711 59.378483 83 60 65
10.233646 7.292127 59.259964 83 59 64
10.274663 7.449610 59.497478 84 59 64
10.254113 7.562711 59.378483 86 61 65
10.233646 7.675360 59.259964 88 65 69
10.233646 7.803105 59.259964 93 70 75
10.213261 7.915051 59.141918 98 76 80
10.254113 8.074711 59.378483 98 77 80
10.254113 8.202711 59.378483 92 72 75
10.254113 8.330711 59.378483 83 63 66
10.233646 8.441827 59.259964 75 54 56
10.233646 8.569571 59.259964 70 48 49
10.295295 8.749710 59.616951 73 50 51
10.254113 8.842710 59.378483 84 61 61
10.254113 8.970711 59.378483 99 75 76
10.274663 9.116945 59.497478 112 88 90
10.254113 9.226711 59.378483 123 100 103
10.295295 9.392280 59.616951 121 101 106
10.274663 9.501715 59.497478 97 78 84
10.254113 9.610711 59.378483 73 55 62
10.254113 9.738711 59.378483 96 79 87
10.254113 9.866711 59.378483 153 137 146
10.254113 9.994711 59.378483 172 156 164
10.233646 10.102506 59.259964 133 117 123
10.233646 10.230250 59.259964 87 72 75
10.213261 10.337361 59.141918 72 58 57
10.192956 10.444047 59.024338 75 61 55
10.213261 10.592341 59.141918 77 65 55
10.172731 10.677293 58.907227 89 77 64
10.152587 10.782882 58.790577 126 114 100
10.152587 10.909615 58.790577 184 174 162
10.172731 11.058245 58.907227 211 202 196
10.152587 11.163080 58.790577 180 167 167
10.152587 11.289813 58.790577 130 113 117
10.092631 11.349125 58.443390 103 83 91
10.132523 11.520465 58.674393 97 73 85
10.152587 11.670011 58.790577 95 69 81
10.152587 11.796743 58.790577 95 66 78
10.132523 11.899912 58.674393 98 68 78
10.172731 12.074118 58.907227 103 73 80
10.213261 12.249712 59.141918 106 76 81
10.233646 12.401907 59.259964 102 74 77
10.233646 12.529652 59.259964 95 69 70
10.233646 12.657396 59.259964 89 65 66
10.254113 12.810711 59.378483 90 67 68
10.316010 13.016811 59.736904 90 68 69
10.254113 13.066710 59.378483 85 63 64
10.213261 13.142142 59.141918 77 55 56
10.233646 13.296119 59.259964 70 48 50
10.254113 13.450711 59.378483 66 43 46
10.254113 13.578711 59.378483 68 45 48
10.213261 13.652102 59.141918 74 51 55
10.213261 13.779593 59.141918 78 56 60
10.213261 13.907083 59.141918 78 56 61
10.213261 14.034573 59.141918 75 53 57
10.233646 14.190331 59.259964 70 49 52
10.213261 14.289553 59.141918 67 46 48
10.233646 14.445819 59.259964 68 46 47
10.233646 14.573564 59.259964 70 48 49
10.233646 14.701308 59.259964 72 50 51
10.192956 14.770090 59.024338 72 50 50
10.213261 14.927003 59.141918 71 49 49
10.192956 15.024564 59.024338 74 49 49
10.192956 15.151800 59.024338 77 52 51
10.172731 15.248721 58.907227 82 57 56
10.172731 15.375706 58.907227 86 60 60
10.132523 15.441414 58.674393 86 61 60
10.132523 15.567896 58.674393 82 58 57
10.132523 15.694379 58.674393 76 54 53
10.112537 15.789656 58.558662 73 52 51
10.112537 15.915889 58.558662 70 53 50
10.112537 16.042122 58.558662 70 53 50
10.092631 16.136526 58.443390 69 54 50
10.112537 16.294586 58.558662 70 56 52
10.152587 16.485853 58.790577 71 58 53
10.572417 -11.850600 60.466888 46 29 30
10.572417 -11.720254 60.466888 46 28 30
10.593993 -11.613561 60.590290 47 28 30
10.637411 -11.530009 60.838612 48 29 30
10.681187 -11.445770 61.088974 49 30 30
10.659254 -11.290852 60.963535 50 31 31
10.681187 -11.182396 61.088974 52 33 32
10.681187 -11.050709 61.088974 53 34 34
10.703210 -10.941535 61.214931 56 35 37
10.747529 -10.854337 61.468410 59 37 39
10.725324 -10.699678 61.341408 60 38 40
10.725324 -10.567448 61.341408 60 37 39
10.725324 -10.435216 61.341408 60 36 38
10.747529 -10.324316 61.468410 61 36 39
10.747529 -10.191811 61.468410 61 36 39
10.681187 -9.997211 61.088974 62 36 40
10.681187 -9.865523 61.088974 64 38 42
10.637411 -9.693944 60.838612 65 39 44
10.615658 -9.543241 60.714195 66 40 46
10.615658 -9.412361 60.714195 67 39 46
10.593993 -9.262540 60.590290 68 39 46
10.572417 -9.113329 60.466888 70 40 47
10.593993 -9.001315 60.590290 72 41 48
10.465840 -8.763396 59.857342 76 43 50
10.529527 -8.686906 60.221588 83 47 54
10.529527 -8.557088 60.221588 91 54 59
10.508212 -8.410212 60.099682 95 59 61
10.465840 -8.247267 59.857342 93 57 57
10.508212 -8.151102 60.099682 87 52 50
10.508212 -8.021547 60.099682 80 46 44
10.486983 -7.876050 59.978268 72 40 37
10.508212 -7.762438 60.099682 64 35 32
10.508212 -7.632884 60.099682 63 35 32
10.508212 -7.503329 60.099682 69 40 37
10.529527 -7.388731 60.221588 80 51 49
10.486983 -7.229585 59.978268 91 62 61
10.486983 -7.100292 59.978268 90 60 60
10.508212 -6.985110 60.099682 78 48 49
10.529527 -6.869462 60.221588 70 40 42
10.486983 -6.712413 59.978268 67 38 40
10.529527 -6.609827 60.221588 65 37 39
10.593993 -6.519683 60.590290 64 36 40
10.572417 -6.376058 60.466888 64 36 40
10.572417 -6.245712 60.466888 63 37 41
10.550928 -6.102936 60.343987 62 37 41
10.572417 -5.985019 60.466888 61 35 39
10.593993 -5.866621 60.590290 60 33 37
10.593993 -5.736009 60.590290 61 33 38
10.593993 -5.605397 60.590290 62 33 38
10.593993 -5.474785 60.590290 61 32 36
10.572417 -5.333288 60.466888 62 33 36
10.572417 -5.202942 60.466888 67 38 41
10.572417 -5.072596 60.466888 73 44 46
10.529527 -4.922200 60.221588 78 50 52
10.529527 -4.792382 60.221588 84 55 59
10.550928 -4.672042 60.343987 90 60 65
10.486983 -4.514433 59.978268 92 62 67
10.486983 -4.385140 59.978268 88 57 63
10.486983 -4.255847 59.978268 85 52 58
10.486983 -4.126554 59.978268 82 50 54
10.486983 -3.997262 59.978268 83 50 54
10.508212 -3.875799 60.099682 85 53 56
10.486983 -3.738676 59.978268 86 55 56
10.444782 -3.594858 59.736904 82 53 53
10.465840 -3.473074 59.857342 84 55 55
10.465840 -3.344041 59.857342 91 61 62
10.465840 -3.215009 59.857342 93 63 63
10.529527 -3.104756 60.221588 92 60 61
10.508212 -2.968916 60.099682 98 64 65
10.529527 -2.845121 60.221588 109 74 75
10.529527 -2.715303 60.221588 110 75 76
10.550928 -2.590741 60.343987 99 65 65
10.550928 -2.460660 60.343987 82 49 50
10.550928 -2.330578 60.343987 73 41 42
10.550928 -2.200497 60.343987 71 41 43
10.508212 -2.062033 60.099682 72 42 45
10.550928 -1.940334 60.343987 74 44 46
10.550928 -1.810253 60.343987 76 45 48
10.508212 -1.673370 60.099682 80 48 52
10.508212 -1.543815 60.099682 87 54 59
10.465840 -1.408558 59.857342 95 61 66
10.444782 -1.276951 59.736904 98 64 70
10.402919 -1.143576 59.497478 96 61 69
10.382113 -1.013289 59.378483 93 57 67
10.340751 -0.881762 59.141918 91 55 65
10.340751 -0.754272 59.141918 89 54 64
10.361390 -0.628033 59.259964 89 53 63
10.279320 -0.496326 58.790577 91 55 63
10.198540 -0.366689 58.328571 95 58 65
10.198540 -0.240952 58.328571 98 60 66
10.259006 -0.115898 58.674393 98 61 66
10.299716 0.010626 58.907227 97 61 66
10.402919 0.138989 59.497478 96 60 66
10.465840 0.268862 59.857342 94 59 66
10.529527 0.400315 60.221588 93 59 68
10.508212 0.529060 60.099682 94 61 71
10.486983 0.657284 59.978268 96 64 74
10.529527 0.789768 60.221588 100 68 77
10.529527 0.919585 60.221588 104 73 79
10.550928 1.051535 60.343987 106 76 80
10.550928 1.181617 60.343987 103 74 77
10.550928 1.311698 60.343987 98 70 73
10.550928 1.441779 60.343987 95 67 71
10.550928 1.571861 60.343987 92 65 69
10.550928 1.701942 60.343987 91 65 70
10.486983 1.820920 59.978268 93 68 73
10.508212 1.954161 60.099682 96 71 77
10.486983 2.079506 59.978268 101 75 82
10.423808 2.195493 59.616951 106 80 88
10.423808 2.324007 59.616951 113 87 95
10.382113 2.442711 59.378483 122 97 105
10.382113 2.570711 59.378483 128 103 112
10.340751 2.687959 59.141918 124 99 109
10.340751 2.815449 59.141918 114 90 101
10.382113 2.954711 59.378483 107 85 97
10.402919 3.088889 59.497478 105 84 96
10.423808 3.223605 59.616951 105 84 98
10.382113 3.338711 59.378483 101 80 94
10.423808 3.480633 59.616951 95 72 88
10.423808 3.609148 59.616951 96 73 88
10.423808 3.737662 59.616951 105 81 96
10.402919 3.858428 59.497478 112 88 103
10.444782 4.002728 59.736904 116 92 107
10.508212 4.156590 60.099682 116 93 107
10.550928 4.303568 60.343987 112 89 102
10.508212 4.415699 60.099682 106 84 96
10.486983 4.536072 59.978268 102 79 88
10.508212 4.674809 60.099682 101 78 84
10.465840 4.784991 59.857342 109 87 90
10.529527 4.943926 60.221588 125 103 104
10.550928 5.084056 60.343987 142 122 121
10.550928 5.214137 60.343987 150 131 129
10.572417 5.355103 60.466888 146 128 128
10.550928 5.474300 60.343987 145 127 130
10.508212 5.581691 60.099682 146 127 132
10.465840 5.688217 59.857342 136 116 123
10.508212 5.840801 60.099682 122 99 108
10.529527 5.982465 60.221588 111 88 96
10.508212 6.099910 60.099682 105 81 88
10.572417 6.267527 60.466888 99 75 82
10.550928 6.384869 60.343987 94 72 77
10.529527 6.501735 60.221588 90 69 73
10.486983 6.604759 59.978268 85 66 70
10.444782 6.706953 59.736904 83 63 66
10.444782 6.835725 59.736904 80 60 62
10.423808 6.950513 59.616951 78 56 58
10.444782 7.093271 59.736904 76 54 56
10.382113 7.178711 59.378483 77 53 56
10.382113 7.306711 59.378483 79 54 56
10.402919 7.449610 59.497478 79 54 56
10.402919 7.577867 59.497478 80 55 55
10.382113 7.690711 59.378483 83 59 58
10.382113 7.818711 59.378483 87 65 64
10.361390 7.930849 59.259964 91 69 68
10.382113 8.074711 59.378483 90 70 69
10.402919 8.219150 59.497478 86 66 65
10.402919 8.347405 59.497478 78 58 58
10.382113 8.458711 59.378483 72 51 52
10.361390 8.569571 59.259964 69 47 47
10.444782 8.767315 59.736904 71 48 49
10.382113 8.842710 59.378483 80 57 58
10.382113 8.970711 59.378483 93 69 71
10.402919 9.116945 59.497478 106 81 85
10.382113 9.226711 59.378483 115 91 96
10.423808 9.392280 59.616951 112 90 97
10.423808 9.520794 59.616951 91 70 78
10.382113 9.610711 59.378483 74 55 64
10.361390 9.719273 59.259964 99 81 91
10.382113 9.866711 59.378483 152 136 145
10.382113 9.994711 59.378483 167 151 159
10.340751 10.082381 59.141918 124 109 115
10.340751 10.209871 59.141918 80 66 68
10.340751 10.337361 59.141918 71 58 55
10.320192 10.444047 59.024338 76 61 55
10.340751 10.592341 59.141918 80 66 55
10.299716 10.677293 58.907227 100 87 74
10.279320 10.782882 58.790577 141 127 115
10.279320 10.909615 58.790577 183 169 159
10.279320 11.036347 58.790577 189 174 170
10.279320 11.163080 58.790577 150 133 133
10.259006 11.267501 58.674393 108 88 93
10.218616 11.349125 58.443390 92 68 79
10.259006 11.520465 58.674393 91 65 78
10.279320 11.670011 58.790577 91 64 77
10.279320 11.796743 58.790577 92 63 76
10.259006 11.899912 58.674393 97 68 79
10.320192 12.098123 59.024338 104 75 84
10.361390 12.274162 59.259964 106 78 85
10.361390 12.401907 59.259964 99 71 77
10.361390 12.529652 59.259964 87 61 65
10.361390 12.657396 59.259964 81 57 59
10.382113 12.810711 59.378483 82 59 61
10.444782 13.016811 59.736904 83 61 62
10.382113 13.066710 59.378483 80 57 58
10.340751 13.142142 59.141918 74 51 52
10.361390 13.296119 59.259964 69 46 47
10.382113 13.450711 59.378483 66 43 44
10.361390 13.551608 59.259964 69 46 47
10.340751 13.652102 59.141918 74 52 54
10.320192 13.752198 59.024338 77 54 57
10.320192 13.879435 59.024338 76 54 58
10.340751 14.034573 59.141918 75 52 57
10.340751 14.162063 59.141918 73 51 55
10.340751 14.289553 59.141918 71 50 53
10.361390 14.445819 59.259964 70 49 51
10.382113 14.602711 59.378483 72 50 52
10.361390 14.701308 59.259964 74 52 53
10.340751 14.799513 59.141918 74 51 53
10.340751 14.927003 59.141918 75 51 52
10.320192 15.024564 59.024338 77 52 53
10.320192 15.151800 59.024338 80 55 55
10.299716 15.248721 58.907227 85 60 60
10.299716 15.375706 58.907227 89 64 64
10.259006 15.441414 58.674393 88 63 64
10.279320 15.598723 58.790577 83 60 59
10.259006 15.694379 58.674393 79 57 56
10.238770 15.789656 58.558662 77 57 56
10.238770 15.915889 58.558662 76 58 55
10.238770 16.042122 58.558662 74 56 53
10.238770 16.168354 58.558662 72 56 52
10.259006 16.326790 58.674393 73 58 54
10.299716 16.518562 58.907227 74 59 55
10.724606 -11.874784 60.590290 44 29 30
10.724606 -11.744172 60.590290 45 28 29
10.746537 -11.637310 60.714195 45 28 28
10.768559 -11.530009 60.838612 46 28 28
10.812874 -11.445770 61.088974 47 29 29
10.812874 -11.314083 61.088974 49 31 30
10.812874 -11.182396 61.088974 50 32 32
10.812874 -11.050709 61.088974 52 33 34
10.835168 -10.941535 61.214931 55 35 36
10.880034 -10.854337 61.468410 57 36 38
10.880034 -10.721831 61.468410 58 37 39
10.857555 -10.567448 61.341408 58 37 39
10.857555 -10.435216 61.341408 59 36 38
10.902607 -10.345736 61.595940 59 36 39
10.925274 -10.234188 61.723995 59 35 39
10.857555 -10.038522 61.341408 59 35 39
10.835168 -9.885865 61.214931 60 35 39
10.790670 -9.713849 60.963535 62 37 41
10.768559 -9.562797 60.838612 64 38 43
10.746537 -9.412361 60.714195 65 37 44
10.724606 -9.262540 60.590290 68 37 45
10.724606 -9.131927 60.590290 70 38 46
10.724606 -9.001315 60.590290 72 39 48
10.594872 -8.763396 59.857342 77 43 51
10.659344 -8.686906 60.221588 88 52 59
10.659344 -8.557088 60.221588 103 65 70
10.616276 -8.393221 59.978268 113 76 77
10.594872 -8.247267 59.857342 115 77 76
10.637767 -8.151102 60.099682 112 75 71
10.637767 -8.021547 60.099682 106 71 65
10.616276 -7.876050 59.978268 87 55 49
10.637767 -7.762438 60.099682 66 35 30
10.637767 -7.632884 60.099682 61 32 27
10.637767 -7.503329 60.099682 68 40 36
10.659344 -7.388731 60.221588 79 50 49
10.616276 -7.229585 59.978268 89 60 59
10.637767 -7.114665 60.099682 89 59 59
10.659344 -6.999279 60.221588 81 50 51
10.681009 -6.883424 60.343987 74 43 45
10.659344 -6.739644 60.221588 70 40 43
10.659344 -6.609827 60.221588 67 37 40
10.724606 -6.519683 60.590290 66 37 41
10.724606 -6.389071 60.590290 66 37 42
10.702763 -6.245712 60.466888 67 39 44
10.702763 -6.115366 60.466888 67 40 44
10.724606 -5.997234 60.590290 64 38 42
10.724606 -5.866621 60.590290 62 34 39
10.724606 -5.736009 60.590290 61 33 38
10.724606 -5.605397 60.590290 61 32 37
10.724606 -5.474785 60.590290 62 33 37
10.681009 -5.322448 60.343987 63 34 38
10.702763 -5.202942 60.466888 66 37 42
10.702763 -5.072596 60.466888 71 42 45
10.659344 -4.922200 60.221588 75 46 49
10.659344 -4.792382 60.221588 78 50 54
10.681009 -4.672042 60.343987 82 53 58
10.616276 -4.514433 59.978268 84 55 60
10.616276 -4.385140 59.978268 82 52 57
10.616276 -4.255847 59.978268 81 49 53
10.616276 -4.126554 59.978268 79 48 51
10.616276 -3.997262 59.978268 79 48 51
10.637767 -3.875799 60.099682 80 49 51
10.637767 -3.746244 60.099682 79 50 51
10.594872 -3.602106 59.857342 78 49 51
10.616276 -3.480090 59.978268 79 51 52
10.594872 -3.344041 59.857342 83 54 56
10.594872 -3.215009 59.857342 86 56 57
10.659344 -3.104756 60.221588 89 56 59
10.659344 -2.974938 60.221588 100 66 67
10.681009 -2.850904 60.343987 120 84 85
10.681009 -2.720822 60.343987 134 98 98
10.681009 -2.590741 60.343987 124 89 88
10.681009 -2.460660 60.343987 93 60 60
10.681009 -2.330578 60.343987 74 42 43
10.681009 -2.200497 60.343987 72 41 43
10.659344 -2.066216 60.221588 72 42 45
10.681009 -1.940334 60.343987 72 43 46
10.681009 -1.810253 60.343987 74 44 48
10.659344 -1.676764 60.221588 77 47 51
10.659344 -1.546946 60.221588 82 51 57
10.616276 -1.411403 59.978268 89 57 63
10.594872 -1.279525 59.857342 93 61 68
10.573555 -1.148178 59.736904 93 60 68
10.510114 -1.013289 59.378483 91 57 66
10.489135 -0.883522 59.259964 89 54 63
10.468241 -0.754272 59.141918 88 53 61
10.489135 -0.628033 59.259964 87 52 60
10.406053 -0.496326 58.790577 89 53 60
10.344600 -0.367410 58.443390 92 56 61
10.344600 -0.241426 58.443390 95 57 62
10.385488 -0.115898 58.674393 95 58 62
10.426700 0.010626 58.907227 95 58 63
10.531176 0.138989 59.497478 94 57 63
10.594872 0.268862 59.857342 92 57 63
10.659344 0.400315 60.221588 90 56 64
10.637767 0.529060 60.099682 88 55 65
10.637767 0.658614 60.099682 89 57 66
10.659344 0.789768 60.221588 91 60 68
10.659344 0.919585 60.221588 95 65 71
10.681009 1.051535 60.343987 98 69 73
10.702763 1.184023 60.466888 100 71 74
10.681009 1.311698 60.343987 98 71 74
10.702763 1.444716 60.466888 95 67 71
10.702763 1.575062 60.466888 90 63 67
10.681009 1.701942 60.343987 88 62 66
10.616276 1.820920 59.978268 91 65 70
10.659344 1.958125 60.221588 95 70 75
10.637767 2.083715 60.099682 100 75 81
10.573555 2.199910 59.736904 106 81 88
10.552322 2.324007 59.616951 114 88 96
10.531176 2.447606 59.497478 123 97 105
10.510114 2.570711 59.378483 125 100 108
10.489135 2.693324 59.259964 118 94 102
10.468241 2.815449 59.141918 108 84 93
10.531176 2.960632 59.497478 102 79 88
10.531176 3.088889 59.497478 101 80 90
10.573555 3.230092 59.736904 103 82 93
10.552322 3.352119 59.616951 100 78 91
10.573555 3.487637 59.736904 95 72 86
10.573555 3.616409 59.736904 96 71 87
10.573555 3.745182 59.736904 100 74 91
10.552322 3.866176 59.616951 104 77 95
10.594872 4.010798 59.857342 106 79 97
10.659344 4.165021 60.221588 106 80 97
10.681009 4.303568 60.343987 104 79 95
10.659344 4.424656 60.221588 101 77 91
10.637767 4.545254 60.099682 98 74 86
10.659344 4.684291 60.221588 97 73 82
10.616276 4.794658 59.978268 101 77 83
10.659344 4.943926 60.221588 109 87 90
10.681009 5.084056 60.343987 119 97 100
10.681009 5.214137 60.343987 120 100 103
10.724606 5.366032 60.590290 113 94 98
10.681009 5.474300 60.343987 108 89 94
10.659344 5.593013 60.221588 110 90 97
10.616276 5.699708 59.978268 111 89 98
10.659344 5.852648 60.221588 109 85 95
10.681009 5.994625 60.343987 106 82 90
10.659344 6.112283 60.221588 101 77 84
10.702763 6.267527 60.466888 96 71 77
10.681009 6.384869 60.343987 91 66 72
10.659344 6.501735 60.221588 86 63 67
10.616276 6.604759 59.978268 82 59 62
10.594872 6.720475 59.857342 78 57 59
10.573555 6.835725 59.736904 75 54 54
10.552322 6.950513 59.616951 72 50 50
10.594872 7.107572 59.857342 72 49 49
10.531176 7.193097 59.497478 74 50 51
10.510114 7.306711 59.378483 76 51 52
10.552322 7.464569 59.616951 77 51 51
10.531176 7.577867 59.497478 77 51 50
10.531176 7.706123 59.497478 79 54 53
10.531176 7.834380 59.497478 83 60 58
10.510114 7.946711 59.378483 86 64 61
10.552322 8.107140 59.616951 84 64 61
10.552322 8.235654 59.616951 80 60 58
10.573555 8.380997 59.736904 75 55 53
10.552322 8.492682 59.616951 71 50 49
10.531176 8.603919 59.497478 69 47 47
10.616276 8.802738 59.978268 70 47 47
10.510114 8.842710 59.378483 76 52 54
10.531176 8.988688 59.497478 85 59 63
10.531176 9.116945 59.497478 94 68 73
10.510114 9.226711 59.378483 101 74 81
10.552322 9.392280 59.616951 98 73 81
10.552322 9.520794 59.616951 84 61 70
10.531176 9.629971 59.497478 75 54 64
10.489135 9.719273 59.259964 95 76 86
10.510114 9.866711 59.378483 133 114 125
10.510114 9.994711 59.378483 142 124 133
10.468241 10.082381 59.141918 109 93 99
10.468241 10.209871 59.141918 79 63 65
10.468241 10.337361 59.141918 75 59 57
10.447429 10.444047 59.024338 78 63 55
10.468241 10.592341 59.141918 83 68 57
10.406053 10.656150 58.790577 107 92 79
10.385488 10.761572 58.674393 145 129 116
10.385488 10.888054 58.674393 168 151 142
10.406053 11.036347 58.790577 157 138 134
10.406053 11.163080 58.790577 120 100 101
10.385488 11.267501 58.674393 91 69 75
10.344600 11.349125 58.443390 83 59 69
10.385488 11.520465 58.674393 85 60 73
10.406053 11.670011 58.790577 87 60 74
10.406053 11.796743 58.790577 90 62 75
10.406053 11.923476 58.790577 97 69 81
10.447429 12.098123 59.024338 105 77 87
10.489135 12.274162 59.259964 105 78 87
10.510114 12.426711 59.378483 93 67 74
10.510114 12.554711 59.378483 78 53 59
10.510114 12.682711 59.378483 70 47 51
10.510114 12.810711 59.378483 72 49 52
10.552322 12.990674 59.616951 74 51 53
10.510114 13.066710 59.378483 73 50 51
10.468241 13.142142 59.141918 70 47 47
10.489135 13.296119 59.259964 68 45 44
10.510114 13.450711 59.378483 67 43 43
10.489135 13.551608 59.259964 70 47 47
10.447429 13.624961 59.024338 76 54 54
10.447429 13.752198 59.024338 78 56 58
10.447429 13.879435 59.024338 78 56 59
10.468241 14.034573 59.141918 79 57 62
10.468241 14.162063 59.141918 79 58 63
10.468241 14.289553 59.141918 76 56 60
10.489135 14.445819 59.259964 73 51 54
10.510114 14.602711 59.378483 73 51 54
10.489135 14.701308 59.259964 76 53 55
10.468241 14.799513 59.141918 77 54 56
10.468241 14.927003 59.141918 79 55 57
10.468241 15.054493 59.141918 81 56 58
10.447429 15.151800 59.024338 82 57 60
10.426700 15.248721 58.907227 86 61 63
10.426700 15.375706 58.907227 88 63 65
10.385488 15.441414 58.674393 88 63 65
10.406053 15.598723 58.790577 85 62 63
10.385488 15.694379 58.674393 84 62 62
10.385488 15.820861 58.674393 83 63 62
10.365004 15.915889 58.558662 80 61 59
10.365004 16.042122 58.558662 76 58 55
10.365004 16.168354 58.558662 73 56 52
10.385488 16.326790 58.674393 73 58 54
10.855218 -11.874784 60.590290 43 29 29
10.877417 -11.768189 60.714195 44 28 28
10.899706 -11.661157 60.838612 44 29 27
10.899706 -11.530009 60.838612 45 29 27
10.944561 -11.445770 61.088974 46 29 28
10.944561 -11.314083 61.088974 48 30 30
10.944561 -11.182396 61.088974 51 33 33
10.944561 -11.050709 61.088974 55 36 36
10.967127 -10.941535 61.214931 57 37 38
10.989786 -10.831910 61.341408 57 37 39
10.989786 -10.699678 61.341408 57 37 38
10.989786 -10.567448 61.341408 58 36 38
10.967127 -10.413700 61.214931 58 36 38
11.012540 -10.324316 61.468410 58 36 38
11.081368 -10.255509 61.852589 58 36 38
10.899706 -9.562797 60.838612 62 36 41
10.877417 -9.412361 60.714195 64 36 42
10.877417 -9.281482 60.714195 67 36 44
10.877417 -9.150602 60.714195 70 37 46
10.855218 -9.001315 60.590290 72 38 48
10.745569 -8.781100 59.978268 77 41 51
10.811090 -8.704562 60.343987 90 53 62
10.789162 -8.557088 60.221588 112 74 80
10.745569 -8.393221 59.978268 134 96 98
10.723905 -8.247267 59.857342 148 111 109
10.767322 -8.151102 60.099682 160 126 121
10.789162 -8.037819 60.221588 159 129 122
10.767322 -7.891993 60.099682 122 92 84
10.789162 -7.778183 60.221588 71 41 34
10.789162 -7.648366 60.221588 57 28 23
10.767322 -7.503329 60.099682 68 39 36
10.811090 -7.403749 60.343987 78 48 48
10.767322 -7.244220 60.099682 84 54 55
10.767322 -7.114665 60.099682 83 53 55
10.789162 -6.999279 60.221588 79 48 51
10.833109 -6.897443 60.466888 75 44 47
10.811090 -6.753343 60.343987 71 40 44
10.811090 -6.623261 60.343987 67 37 41
10.855218 -6.519683 60.590290 66 36 41
10.855218 -6.389071 60.590290 67 37 42
10.855218 -6.258458 60.590290 70 41 46
10.855218 -6.127846 60.590290 72 44 48
10.855218 -5.997234 60.590290 70 42 47
10.877417 -5.878619 60.714195 65 37 42
10.877417 -5.747739 60.714195 63 34 39
10.855218 -5.605397 60.590290 62 33 38
10.855218 -5.474785 60.590290 62 33 38
10.811090 -5.322448 60.343987 63 34 39
10.811090 -5.192367 60.343987 66 36 42
10.833109 -5.072596 60.466888 68 40 44
10.789162 -4.922200 60.221588 72 43 47
10.789162 -4.792382 60.221588 74 46 50
10.789162 -4.662565 60.221588 76 48 52
10.745569 -4.514433 59.978268 76 48 52
10.745569 -4.385140 59.978268 76 47 50
10.723905 -4.247267 59.857342 75 45 48
10.745569 -4.126554 59.978268 75 45 47
10.745569 -3.997262 59.978268 75 45 48
10.789162 -3.883660 60.221588 75 46 48
10.767322 -3.746244 60.099682 74 46 48
10.767322 -3.616689 60.099682 74 45 48
10.767322 -3.487135 60.099682 75 46 50
10.745569 -3.350797 59.978268 77 47 52
10.745569 -3.221504 59.978268 80 49 53
10.789162 -3.104756 60.221588 85 52 56
10.789162 -2.974938 60.221588 97 62 65
10.811090 -2.850904 60.343987 121 85 87
10.811090 -2.720822 60.343987 151 116 115
10.811090 -2.590741 60.343987 153 118 117
10.811090 -2.460660 60.343987 113 81 80
10.811090 -2.330578 60.343987 81 51 50
10.811090 -2.200497 60.343987 75 45 47
10.789162 -2.066216 60.221588 72 44 47
10.811090 -1.940334 60.343987 71 43 46
10.811090 -1.810253 60.343987 72 43 47
10.811090 -1.680172 60.343987 74 45 50
10.811090 -1.550091 60.343987 78 48 54
10.767322 -1.414260 60.099682 83 53 59
10.745569 -1.282110 59.978268 88 57 64
10.723905 -1.150493 59.857342 90 58 66
10.659432 -1.015320 59.497478 89 56 65
10.616879 -0.883522 59.259964 87 53 62
10.595731 -0.754272 59.141918 86 52 60
10.616879 -0.628033 59.259964 86 51 59
10.532785 -0.496326 58.790577 88 52 59
10.491236 -0.368135 58.558662 90 54 59
10.491236 -0.241902 58.558662 92 55 60
10.532785 -0.116128 58.790577 93 55 59
10.553684 0.010626 58.907227 92 55 60
10.680837 0.139268 59.616951 92 56 62
10.745569 0.269405 59.978268 91 56 62
10.811090 0.401129 60.343987 89 55 63
10.789162 0.530133 60.221588 86 54 62
10.789162 0.659950 60.221588 85 53 63
10.811090 0.791373 60.343987 85 55 64
10.811090 0.921454 60.343987 90 60 67
10.833109 1.053677 60.466888 96 67 72
10.833109 1.184023 60.466888 100 72 76
10.833109 1.314370 60.466888 100 73 77
10.833109 1.444716 60.466888 96 68 72
10.833109 1.575062 60.466888 89 63 67
10.811090 1.701942 60.343987 86 61 65
10.745569 1.820920 59.978268 88 63 67
10.789162 1.958125 60.221588 92 67 72
10.745569 2.079506 59.978268 97 72 78
10.680837 2.195493 59.616951 104 78 84
10.680837 2.324007 59.616951 111 85 92
10.659432 2.447606 59.497478 117 91 98
10.638113 2.570711 59.378483 115 90 97
10.616879 2.693324 59.259964 107 84 90
10.616879 2.821069 59.259964 100 77 84
10.680837 2.966577 59.616951 97 75 82
10.702327 3.101319 59.736904 100 78 86
10.745569 3.243142 59.978268 103 82 91
10.723905 3.365636 59.857342 104 81 92
10.745569 3.501728 59.978268 103 78 91
10.745569 3.631021 59.978268 103 76 92
10.745569 3.760314 59.978268 101 73 90
10.723905 3.881765 59.857342 99 71 89
10.767322 4.027035 60.099682 99 71 89
10.811090 4.173487 60.343987 100 72 89
10.833109 4.312333 60.466888 100 72 88
10.811090 4.433650 60.343987 99 72 86
10.811090 4.563731 60.343987 97 71 82
10.811090 4.693812 60.343987 94 69 77
10.789162 4.814108 60.221588 93 68 74
10.833109 4.964064 60.466888 94 70 74
10.855218 5.104807 60.590290 98 75 77
10.855218 5.235419 60.590290 99 77 80
10.877417 5.377005 60.714195 94 73 77
10.855218 5.496644 60.590290 91 71 75
10.833109 5.615795 60.466888 93 73 78
10.811090 5.734462 60.343987 98 75 83
10.833109 5.876488 60.466888 101 77 85
10.833109 6.006834 60.466888 102 78 84
10.811090 6.124706 60.343987 98 74 79
10.833109 6.267527 60.466888 94 69 73
10.789162 6.371918 60.221588 89 64 68
10.745569 6.475466 59.978268 84 59 63
10.702327 6.578180 59.736904 80 56 58
10.680837 6.693485 59.616951 77 53 55
10.680837 6.821999 59.616951 73 50 50
10.659432 6.936584 59.497478 70 47 46
10.680837 7.079027 59.616951 70 46 46
10.638113 7.178711 59.378483 72 48 48
10.616879 7.292127 59.259964 75 49 50
10.680837 7.464569 59.616951 76 50 50
10.680837 7.593083 59.616951 76 50 49
10.680837 7.721597 59.616951 78 53 51
10.680837 7.850111 59.616951 82 58 55
10.659432 7.962636 59.497478 84 62 59
10.680837 8.107140 59.616951 82 60 57
10.680837 8.235654 59.616951 77 56 53
10.723905 8.397894 59.857342 73 52 49
10.680837 8.492682 59.616951 71 49 48
10.680837 8.621196 59.616951 70 47 46
10.745569 8.802738 59.978268 70 46 46
10.659432 8.860432 59.497478 72 47 49
10.659432 8.988688 59.497478 77 51 55
10.680837 9.135252 59.616951 82 54 60
10.638113 9.226711 59.378483 85 58 65
10.680837 9.392280 59.616951 84 58 66
10.680837 9.520794 59.616951 77 53 61
10.659432 9.629971 59.497478 74 51 61
10.616879 9.719273 59.259964 86 65 75
10.616879 9.847017 59.259964 109 89 99
10.638113 9.994711 59.378483 115 96 105
10.595731 10.082381 59.141918 96 78 85
10.595731 10.209871 59.141918 80 62 66
10.574665 10.316810 59.024338 80 63 60
10.574665 10.444047 59.024338 81 64 58
10.574665 10.571283 59.024338 87 71 61
10.532785 10.656150 58.790577 110 93 82
10.491236 10.740346 58.558662 139 121 111
10.491236 10.866579 58.558662 148 128 121
10.532785 11.036347 58.790577 130 109 107
10.511970 11.141019 58.674393 100 77 81
10.491236 11.245277 58.558662 81 57 65
10.470584 11.349125 58.443390 77 53 63
10.511970 11.520465 58.674393 80 55 67
10.532785 11.670011 58.790577 84 57 70
10.511970 11.773430 58.674393 88 61 73
10.532785 11.923476 58.790577 96 69 78
10.595731 12.122222 59.141918 103 77 85
10.638113 12.298711 59.378483 102 77 84
10.659432 12.451614 59.497478 87 62 70
10.659432 12.579870 59.497478 70 46 53
10.638113 12.682711 59.378483 63 40 44
10.638113 12.810711 59.378483 64 41 44
10.680837 12.990674 59.616951 66 43 45
10.616879 13.040629 59.259964 66 43 44
10.595731 13.142142 59.141918 67 44 43
10.616879 13.296119 59.259964 68 43 42
10.616879 13.423863 59.259964 69 44 43
10.595731 13.524612 59.141918 74 50 49
10.574665 13.624961 59.024338 81 57 57
10.553684 13.724912 58.907227 81 59 59
10.574665 13.879435 59.024338 80 58 60
10.574665 14.006671 59.024338 82 61 65
10.595731 14.162063 59.141918 84 63 67
10.595731 14.289553 59.141918 80 59 63
10.595731 14.417043 59.141918 73 52 56
10.638113 14.602711 59.378483 72 51 54
10.638113 14.730711 59.378483 75 53 56
10.595731 14.799513 59.141918 79 55 59
10.595731 14.927003 59.141918 82 58 62
10.595731 15.054493 59.141918 84 59 63
10.595731 15.181983 59.141918 85 59 63
10.574665 15.279037 59.024338 85 60 64
10.553684 15.375706 58.907227 86 61 65
10.532785 15.471991 58.790577 87 63 65
10.532785 15.598723 58.790577 87 63 65
10.532785 15.725456 58.790577 86 64 65
10.511970 15.820861 58.674393 84 64 63
10.511970 15.947343 58.674393 79 60 59
10.491236 16.042122 58.558662 75 56 54
10.491236 16.168354 58.558662 72 54 51
10.511970 16.326790 58.674393 72 55 52
10.985830 -11.874784 60.590290 43 29 28
